ncols	388
nrows	31
xllcorner	-76.71974975
yllcorner	39.46578008
cellsize	9.26E-05																																																																																																																																																																																																																																																																																																																																																																																																																				
NODATA_value	-9999																																																																																																																																																																																																																																																																																																																																																																																																																				
-9999	-9999	-9999	-9999	-9999	-9999	-9999	-9999	-9999	-9999	-9999	-9999	-9999	-9999	-9999	-9999	-9999	-9999	-9999	-9999	-9999	-9999	-9999	-9999	-9999	-9999	-9999	-9999	-9999	-9999	-9999	-9999	-9999	-9999	-9999	202.6549	202.6244	202.5942	202.4981	202.3104	202.0601	201.7657	201.4664	201.2076	200.9586	200.6095	200.1582	199.722	199.3305	198.8233	198.0537	197.2138	196.4976	195.9411	195.5664	195.2681	195.0073	194.7679	194.5022	194.1448	193.6188	192.6912	191.2964	189.8281	188.8107	188.2819	187.8707	187.5	187.3323	187.1366	186.7468	186.2694	185.8131	185.3183	184.7716	184.0323	183.1857	182.3583	181.4838	180.5268	179.5051	178.5332	177.7292	177.1236	176.6265	175.9062	174.6177	172.8999	171.3052	170.0721	169.2743	168.9418	169.091	169.6082	170.1883	170.7646	171.3858	172.0296	172.6523	173.279	173.9282	174.5558	175.1019	175.569	175.9978	176.3999	176.7842	177.1787	177.607	178.0805	178.5598	179.0096	179.3948	179.6959	180.0881	180.4384	180.6214	180.7137	180.7354	180.7508	180.7341	180.6552	180.5395	180.386	180.1582	179.9185	179.7082	179.4893	179.2757	179.0662	178.8618	178.6672	178.4861	178.3258	178.1928	178.082	178.0155	178.0168	178.0334	178.0627	178.1086	178.1294	178.1253	178.2294	178.3372	178.379	178.3931	178.3887	178.3879	178.3995	178.4292	178.4743	178.5223	178.5708	178.6363	178.7392	178.8597	178.9524	179.0265	179.0816	179.1125	179.1168	179.0901	179.0378	178.9477	178.8182	178.6704	178.5229	178.3861	178.0932	177.6246	177.0795	176.3438	175.3158	174.156	173.0224	171.868	170.4795	168.2529	165.678	163.4437	161.5276	159.8193	158.239	156.2739	154.0824	152.4961	151.4846	150.7447	150.0703	149.3607	148.5784	147.8569	147.1964	146.6055	146.0643	145.39	144.3131	142.7091	140.8208	138.9812	137.4987	137.1409	137.1409	137.1409	138.3273	140.2144	142.4202	144.4745	146.1575	147.5207	148.6751	149.6504	150.5385	151.4093	152.2239	152.8904	153.3897	153.7161	153.8338	153.6749	153.2333	152.6991	152.1006	151.3988	150.6321	149.8064	148.773	147.5531	146.2695	145.0199	143.8822	142.8458	141.9028	141.0757	140.2648	139.2473	138.1819	137.217	136.3922	135.6223	134.6759	133.5105	132.2567	131.0704	130.0284	129.151	128.4953	128.1606	128.0394	127.8429	127.476	127.0529	126.6618	126.226	125.6775	125.1449	124.7211	124.4708	124.4278	124.5437	124.7062	124.8597	124.8607	124.3199	123.1268	122.1876	121.6333	121.3821	121.3878	121.3501	121.2488	121.0986	120.9481	120.8329	120.7159	120.5945	120.4924	120.4192	120.3535	120.2742	120.2	120.1287	120.0931	120.1598	120.3328	120.5618	120.8022	121.0252	121.2261	121.4025	121.4625	121.3058	120.8934	120.1427	118.9898	117.8941	117.7999	118.6329	119.3933	119.958	120.4263	120.8071	121.0814	121.276	121.3166	121.2538	121.0425	120.6039	119.9578	119.0725	117.496	115.8078	115.0604	115.0604	115.145	115.0898	115.018	114.9434	114.8298	114.678	114.5458	114.4289	114.3603	114.5482	115.2948	116.4985	118.4119	121.0923	123.6453	125.5439	127.4108	129.6388	131.9023	133.9579	135.6626	137.1519	138.7835	141.2367	144.8052	147.5114	149.3418	151.1283	152.6331	153.4364	153.4253	153.1378	153.0279	153.1158	153.3739	-9999	-9999	-9999	-9999	-9999	-9999	-9999	-9999	-9999	-9999	-9999	-9999	-9999	-9999	-9999	-9999	-9999	-9999	-9999	-9999	-9999	-9999	-9999	-9999	-9999	-9999	-9999	-9999	-9999	-9999	-9999	-9999	-9999	-9999	-9999	-9999	-9999	-9999
-9999	-9999	-9999	-9999	-9999	-9999	-9999	-9999	-9999	-9999	-9999	-9999	-9999	-9999	-9999	-9999	-9999	-9999	-9999	-9999	-9999	-9999	-9999	-9999	-9999	-9999	-9999	-9999	-9999	-9999	-9999	-9999	-9999	-9999	202.6782	202.6421	202.6009	202.5447	202.4316	202.2388	201.993	201.7103	201.4269	201.1716	200.8986	200.5202	200.1116	199.731	199.3175	198.8153	198.1967	197.4573	196.7611	196.3122	196.0652	195.8141	195.5263	195.2821	195.0679	194.7733	194.2753	193.3449	191.9263	190.377	189.2173	188.5872	188.1738	187.7397	187.3269	186.8989	186.3925	185.668	184.8239	184.1122	183.421	182.6859	181.9759	181.2913	180.4216	179.1636	177.7571	176.7647	176.3066	175.9523	175.5331	174.7065	173.3881	171.9787	170.8788	169.9641	169.5687	169.7646	170.2015	170.7188	171.3782	172.0894	172.7559	173.3812	173.9767	174.57	175.1865	175.8122	176.3867	176.8677	177.3235	177.7784	178.2199	178.6488	179.0648	179.4994	179.9261	180.32	180.6657	180.9122	181.1213	181.2769	181.3388	181.3372	181.3218	181.2483	181.1239	180.9902	180.8329	180.6099	180.2789	179.9388	179.6537	179.3712	179.1086	178.8587	178.6207	178.4103	178.2298	178.0564	177.9117	177.8067	177.7454	177.7398	177.774	177.8215	177.8607	177.89	177.9246	177.975	178.0101	178.0035	177.9622	177.9074	177.8401	177.8354	177.8637	177.8575	177.8715	177.9407	178.08	178.2477	178.3809	178.4655	178.5409	178.6156	178.6745	178.704	178.6891	178.6372	178.5507	178.4397	178.3313	178.2355	178.1012	177.8575	177.5057	177.0247	176.2732	175.1935	173.9446	172.7506	171.5943	170.1124	167.7988	165.1747	162.8492	160.7115	158.5886	155.7973	152.7385	150.32	148.6571	147.44	146.5669	145.7005	144.785	144.2254	143.8704	143.5188	143.0563	142.436	141.5578	140.2792	138.732	137.5681	137.1409	137.1409	137.328	137.9756	139.0596	140.8578	143.2657	145.4275	147.0716	148.4356	149.6811	150.7812	151.7323	152.5196	153.1898	153.8148	154.3802	154.8038	154.9843	154.9554	154.8168	154.5509	154.1021	153.5627	152.9994	152.3897	151.7444	150.9211	149.7441	148.2821	146.8337	145.5913	144.5375	143.5531	142.6096	141.7635	140.9731	140.0403	138.9998	137.9489	136.8742	135.8356	134.8411	133.7613	132.6468	131.7306	130.994	130.4677	130.1499	129.9277	129.6279	129.1656	128.6686	128.2319	127.8427	127.5114	127.3077	127.1336	127.0078	127.023	127.1219	127.2394	127.3752	127.3856	127.0193	126.221	125.2134	124.1594	123.2048	122.4937	122.0292	121.6262	121.3359	121.2233	121.1824	121.1203	121.0463	120.9948	120.9699	120.9617	120.9748	121.0068	121.0854	121.2143	121.361	121.5398	121.8683	122.2598	122.5836	122.8446	123.0289	123.0206	122.6798	122.0785	121.3444	120.3264	118.8818	117.7834	117.628	117.9652	118.3105	118.6134	118.9356	119.2281	119.4185	119.4269	119.1976	118.6198	117.8341	117.1912	116.6347	115.858	115.3241	115.3483	115.3471	115.305	115.2564	115.2109	115.1578	115.1586	115.4824	115.8883	116.1829	116.6055	117.4897	118.9891	120.6836	122.4079	124.1862	125.73	127.2837	129.1951	131.4144	133.5242	135.2203	136.6368	137.9251	139.7444	142.6594	145.8754	148.1807	149.8753	151.5064	152.8845	153.9577	154.3015	154.2456	154.285	154.2679	-9999	-9999	-9999	-9999	-9999	-9999	-9999	-9999	-9999	-9999	-9999	-9999	-9999	-9999	-9999	-9999	-9999	-9999	-9999	-9999	-9999	-9999	-9999	-9999	-9999	-9999	-9999	-9999	-9999	-9999	-9999	-9999	-9999	-9999	-9999	-9999	-9999	-9999	-9999
-9999	-9999	-9999	-9999	-9999	-9999	-9999	-9999	-9999	-9999	-9999	-9999	-9999	-9999	-9999	-9999	-9999	-9999	-9999	-9999	-9999	-9999	-9999	-9999	-9999	-9999	-9999	-9999	-9999	-9999	-9999	-9999	-9999	-9999	-9999	202.6569	202.5988	202.4989	202.3862	202.1979	201.9644	201.7254	201.472	201.1883	200.8849	200.5273	200.1336	199.7072	199.2666	198.8672	198.3654	197.7078	197.1196	196.7917	196.5679	196.335	196.0814	195.8245	195.5676	195.2937	194.9408	194.2625	193.0258	191.4279	190.0755	189.2249	188.7266	188.287	187.7979	187.3847	186.7211	185.633	184.4424	183.4857	182.6462	181.893	181.2667	180.5831	179.5165	178.1283	176.9462	176.2156	175.7736	175.4517	175.0944	174.4474	173.5942	172.6858	171.7045	171.108	171.1011	171.5071	172.0374	172.5466	173.1118	173.7232	174.2888	174.7899	175.298	175.8747	176.4839	177.1183	177.773	178.3453	178.8381	179.3025	179.7789	180.2568	180.6868	181.0539	181.3658	181.6242	181.8005	181.8695	181.8874	181.9145	181.8949	181.7964	181.7566	181.6311	181.4305	181.2403	181.0088	180.6965	180.2647	179.8371	179.4924	179.1566	178.8429	178.553	178.292	178.0701	177.8801	177.6904	177.4899	177.3461	177.2964	177.2991	177.3754	177.4403	177.4524	177.4714	177.5367	177.5925	177.6056	177.5686	177.4841	177.3782	177.2939	177.2304	177.1973	177.2224	177.3118	177.4768	177.6513	177.7585	177.8214	177.9284	178.0489	178.15	178.2394	178.3054	178.2995	178.2327	178.1232	178.0098	177.9437	177.9065	177.7172	177.4612	177.2136	176.7703	175.9334	174.7944	173.5352	172.3366	171.142	169.4793	167.1144	164.5359	162.1551	159.804	157.308	154.1688	150.8751	148.108	145.895	144.3313	142.8828	141.5002	140.6503	140.395	140.3521	140.2546	139.999	139.4955	138.714	137.8746	137.4158	137.4158	137.7102	138.1218	138.6041	139.558	141.6312	144.4137	146.4666	147.9521	149.2413	150.508	151.7468	152.7781	153.5772	154.248	154.8621	155.3946	155.8141	156.1165	156.3124	156.3909	156.3277	156.1135	155.7066	155.1694	154.5896	154.0176	153.4857	152.9189	152.0228	150.6158	148.9083	147.3148	146.018	144.9492	143.9676	143.0142	142.1163	141.2649	140.2929	139.1422	137.9987	136.9818	136.0119	135.0069	134.0563	133.3144	132.7939	132.5217	132.3987	132.2775	132.1023	131.8027	131.4038	130.9798	130.5855	130.2668	130.0906	129.9937	129.9679	130.0302	130.1013	130.1654	130.1949	130.1303	129.8924	129.4249	128.767	127.9575	127.0635	126.1537	125.2836	124.6846	124.3164	124.0693	123.9511	123.8938	123.7858	123.5146	123.1388	122.8929	122.9333	123.1166	123.4037	123.8182	124.2838	124.7324	125.1455	125.5389	125.8511	125.9024	125.5528	124.9843	124.3756	123.7097	122.9281	122.0617	120.9387	119.5937	118.3695	117.5863	117.4229	117.4229	117.4229	117.5591	117.7004	117.5955	117.1955	116.6323	116.3939	116.3939	116.3939	116.1917	115.8386	115.6736	115.6108	115.67	115.8276	116.0958	116.5425	117.2464	118.3001	119.2927	120.0337	120.8308	121.8997	123.0828	124.116	125.066	126.2259	127.7057	129.3829	131.1914	133.0751	134.8719	136.4208	137.7358	138.993	140.9194	143.8191	146.5447	148.615	150.2718	151.7413	152.9948	154.0504	154.7011	154.877	-9999	-9999	-9999	-9999	-9999	-9999	-9999	-9999	-9999	-9999	-9999	-9999	-9999	-9999	-9999	-9999	-9999	-9999	-9999	-9999	-9999	-9999	-9999	-9999	-9999	-9999	-9999	-9999	-9999	-9999	-9999	-9999	-9999	-9999	-9999	-9999	-9999	-9999	-9999	-9999	-9999
-9999	-9999	-9999	-9999	-9999	-9999	-9999	-9999	-9999	-9999	-9999	-9999	-9999	-9999	-9999	-9999	-9999	-9999	-9999	-9999	-9999	-9999	-9999	-9999	-9999	-9999	-9999	-9999	-9999	-9999	-9999	-9999	-9999	-9999	-9999	202.626	202.5638	202.474	202.3624	202.1792	201.9691	201.7306	201.466	201.2095	200.9412	200.5795	200.1402	199.7101	199.3397	198.9908	198.4761	197.878	197.461	197.2669	197.0636	196.8136	196.5447	196.2623	195.9703	195.6895	195.4324	195.0207	194.123	192.6576	191.0924	190.0158	189.4015	188.8812	188.3236	187.6792	186.8202	185.7119	184.5241	183.4858	182.6548	182.0539	181.4582	180.7353	179.9629	178.838	177.7211	176.9584	176.5143	176.2532	175.9517	175.4656	174.9353	174.5512	174.2665	174.0406	174.0103	174.2043	174.4928	174.8224	175.1624	175.4827	175.8474	176.2971	176.7574	177.3562	178.0551	178.7282	179.3288	179.8716	180.3749	180.8678	181.3732	181.8521	182.2208	182.4641	182.6445	182.7862	182.8279	182.7339	182.6376	182.518	182.3228	182.1499	182.0524	181.9619	181.7178	181.337	180.9838	180.5857	180.0921	179.614	179.2214	178.8421	178.491	178.1847	177.9224	177.6904	177.4712	177.2523	177.0451	176.8993	176.8553	176.8896	176.9332	176.9543	176.9767	177.0199	177.0658	177.1047	177.1251	177.0919	176.9938	176.8758	176.7654	176.654	176.605	176.6816	176.8145	176.947	177.0757	177.2049	177.3293	177.4599	177.5701	177.724	177.8924	177.9419	177.8717	177.7204	177.6139	177.5803	177.5034	177.3377	177.1711	177.0106	176.762	176.2518	175.274	174.0743	172.8949	171.7717	170.4545	168.4509	166.0581	163.6453	161.2848	158.9107	156.3126	153.5618	150.4646	147.2626	144.7731	142.8365	140.9595	139.5762	139.0982	138.9422	138.8343	138.7024	138.4752	138.0991	137.7492	137.7492	138.1212	138.6155	138.9976	139.3642	140.3441	142.7354	145.5674	147.4174	148.7871	149.9883	151.1947	152.4003	153.5051	154.4689	155.2884	155.9571	156.4989	156.9449	157.2717	157.5331	157.6978	157.7257	157.6699	157.5684	157.2715	156.7473	156.1363	155.5319	154.8737	154.1587	153.4229	152.4331	150.9054	149.1033	147.4281	146.0915	145.0337	144.0779	143.1115	142.1312	141.1365	140.0801	139.006	138.1371	137.4121	136.7104	136.0255	135.4152	134.9554	134.7982	134.8536	134.9237	134.9585	134.8673	134.6846	134.4478	134.1622	133.8781	133.6809	133.5871	133.5503	133.5301	133.5138	133.468	133.3333	133.1191	132.8908	132.6561	132.3518	131.9578	131.4717	130.8459	130.0942	129.4965	129.1274	128.9374	128.935	129.0726	129.2039	129.16	128.9607	128.7539	128.5653	128.3735	128.2386	128.2951	128.5393	128.7418	128.8829	129.0238	129.0588	128.76	128.0626	127.2608	126.5094	125.759	124.9654	124.08	123.0737	121.9902	120.8784	119.7882	118.8729	118.2201	117.6041	117.0555	116.9143	116.8176	116.6383	116.7973	117.4199	117.9337	118.1808	118.0881	117.8506	117.7701	117.9378	118.4147	119.0409	119.734	120.577	121.5468	122.4156	123.1026	123.7149	124.3489	124.979	125.6042	126.2354	127.0845	128.3903	130.0081	131.5974	133.1511	134.7364	136.2462	137.6402	138.974	140.4217	142.3744	144.8568	147.0654	148.896	150.5195	151.9367	153.0998	154.114	154.8549	-9999	-9999	-9999	-9999	-9999	-9999	-9999	-9999	-9999	-9999	-9999	-9999	-9999	-9999	-9999	-9999	-9999	-9999	-9999	-9999	-9999	-9999	-9999	-9999	-9999	-9999	-9999	-9999	-9999	-9999	-9999	-9999	-9999	-9999	-9999	-9999	-9999	-9999	-9999	-9999	-9999	-9999
-9999	-9999	-9999	-9999	-9999	-9999	-9999	-9999	-9999	-9999	-9999	-9999	-9999	-9999	-9999	-9999	-9999	-9999	-9999	-9999	-9999	-9999	-9999	-9999	-9999	-9999	-9999	-9999	-9999	-9999	-9999	-9999	-9999	-9999	-9999	202.5683	202.5118	202.4523	202.3495	202.1806	201.9748	201.7433	201.4948	201.2552	201.0112	200.6368	200.1958	199.8002	199.4342	199.0606	198.63	198.1869	197.8277	197.5783	197.3618	197.1184	196.825	196.5155	196.2374	195.9704	195.6482	195.314	194.7247	193.505	192.0298	190.8336	190.0424	189.4261	188.7699	187.9565	187.0489	185.9419	184.7209	183.8088	183.1433	182.6634	182.2587	181.7702	181.0532	179.9603	178.9629	178.323	177.8932	177.6231	177.4066	177.1613	176.9134	176.7468	176.6691	176.5701	176.554	176.6974	176.8858	177.0379	177.1947	177.3779	177.6795	178.1705	178.7264	179.3116	179.9303	180.539	181.0781	181.5484	181.9518	182.3484	182.762	183.1168	183.333	183.445	183.5041	183.5144	183.4636	183.3496	183.1864	182.948	182.6563	182.4011	182.2009	182.0132	181.6874	181.2175	180.7575	180.2721	179.7488	179.2478	178.8098	178.4173	178.0853	177.8082	177.5708	177.3427	177.0994	176.8777	176.7011	176.542	176.418	176.4064	176.4482	176.4962	176.5404	176.581	176.6191	176.6477	176.6807	176.6622	176.5367	176.3672	176.2014	176.0631	176.0143	176.0972	176.2448	176.417	176.5679	176.6952	176.838	176.9913	177.1142	177.2283	177.31	177.3011	177.2523	177.172	177.1071	177.0693	177.011	176.9202	176.7517	176.4552	175.9702	175.2295	174.2444	173.1497	172.0771	170.9231	169.328	167.0758	164.7133	162.4601	160.2018	157.9499	155.4572	152.8024	149.8897	146.8928	144.3937	142.1936	140.4364	139.4029	138.9622	138.6943	138.4903	138.2188	138.0318	138.0318	138.4216	138.9661	139.5605	140.2224	141.0905	142.4283	144.3798	146.4469	148.1304	149.4628	150.6494	151.8529	153.0601	154.2012	155.2447	156.1644	156.9873	157.6743	158.1665	158.4675	158.6349	158.7672	158.851	158.864	158.85	158.7899	158.6071	158.174	157.5131	156.7901	156.0476	155.2164	154.3182	153.383	152.2303	150.5902	148.8217	147.286	146.0323	144.9671	143.9362	142.914	141.8955	140.877	139.9401	139.2327	138.8571	138.6892	138.5114	138.289	138.1634	138.1421	138.1793	138.2497	138.3036	138.3246	138.3248	138.2974	138.1978	138.0081	137.7999	137.6298	137.4848	137.3423	137.2142	137.0677	136.8803	136.6678	136.4616	136.2743	136.0995	135.9341	135.7653	135.574	135.3564	135.1349	134.9009	134.6362	134.3364	134.0097	133.6752	133.4398	133.2741	133.0223	132.7729	132.7746	133.046	133.2652	133.1344	132.7352	132.3562	132.0817	131.7779	131.3109	130.61	129.7676	128.9004	128.0788	127.3276	126.5771	125.6919	124.646	123.5268	122.4443	121.522	120.6931	119.8619	119.0508	118.4354	118.3557	118.6564	119.1033	119.5959	120.0047	120.3628	120.7002	121.06	121.5066	122.0662	122.7404	123.3948	123.944	124.4134	124.8198	125.1898	125.5875	126.0788	126.6879	127.3914	128.1036	128.849	129.8704	131.291	132.7868	134.0212	135.1743	136.4747	137.8085	139.0932	140.3721	141.8687	143.6871	145.6371	147.478	149.1624	150.7485	152.1437	153.2198	154.1187	154.7363	-9999	-9999	-9999	-9999	-9999	-9999	-9999	-9999	-9999	-9999	-9999	-9999	-9999	-9999	-9999	-9999	-9999	-9999	-9999	-9999	-9999	-9999	-9999	-9999	-9999	-9999	-9999	-9999	-9999	-9999	-9999	-9999	-9999	-9999	-9999	-9999	-9999	-9999	-9999	-9999	-9999	-9999
-9999	-9999	-9999	-9999	-9999	-9999	-9999	-9999	-9999	-9999	-9999	-9999	-9999	-9999	-9999	-9999	-9999	-9999	-9999	-9999	-9999	-9999	-9999	-9999	-9999	-9999	-9999	-9999	-9999	-9999	-9999	-9999	-9999	-9999	-9999	202.5908	202.5326	202.4307	202.3371	202.1923	201.9851	201.7513	201.5186	201.2862	201.0345	200.681	200.267	199.8882	199.5419	199.1611	198.7955	198.4663	198.1478	197.8348	197.5325	197.2488	196.9576	196.6574	196.3613	196.0144	195.6369	195.2674	194.6929	193.6606	192.47	191.3917	190.507	189.7539	189.0173	188.2049	187.1915	186.1439	185.2777	184.5387	184.0257	183.6099	183.2137	182.797	182.164	181.2921	180.4214	179.7192	179.2032	178.9253	178.8738	178.9075	178.9763	179.0877	179.1385	179.1755	179.2189	179.2596	179.3143	179.3909	179.5275	179.7373	180.025	180.4162	180.905	181.4117	181.8861	182.3244	182.7115	183.01	183.2608	183.4948	183.7114	183.8996	184.0246	184.1014	184.105	184.0271	183.904	183.7134	183.4586	183.1984	182.9496	182.6463	182.2579	181.8304	181.3828	180.894	180.3688	179.8291	179.2821	178.7682	178.3067	177.8754	177.5402	177.288	177.0914	176.929	176.7442	176.4895	176.2371	176.025	175.8544	175.7938	175.8342	175.8821	175.9023	175.9279	175.9571	176.0001	176.0254	175.9902	175.8833	175.7284	175.5627	175.451	175.4251	175.469	175.5737	175.7162	175.8743	176.0676	176.3039	176.5022	176.633	176.6971	176.7193	176.7156	176.655	176.5887	176.5242	176.4466	176.3683	176.243	175.9022	175.3605	174.6956	173.8807	172.9552	172.0029	170.9918	169.6418	167.7126	165.4019	163.1061	160.94	158.7688	156.4984	154.1072	151.5256	148.7874	146.1271	143.7659	141.7471	140.227	139.3091	138.8484	138.5681	138.3338	138.2772	138.5175	139.0944	140.0328	141.0049	141.8552	142.7555	143.9779	145.577	147.2406	148.733	150.0455	151.2764	152.5431	153.8253	155.0474	156.1493	157.1209	157.9802	158.5947	158.9909	159.2593	159.4238	159.5592	159.6506	159.6745	159.6666	159.6427	159.5152	159.2617	158.9454	158.522	157.8652	157.0418	156.0794	155.0687	154.0757	152.9803	151.578	149.9182	148.3196	146.9896	145.8381	144.7577	143.7848	142.8633	141.9454	141.1835	140.6475	140.4475	140.5392	140.7517	140.997	141.2726	141.5213	141.6917	141.794	141.8523	141.8737	141.8628	141.8298	141.7642	141.6352	141.4756	141.3147	141.1604	141.0108	140.8611	140.7049	140.5454	140.3845	140.212	140.0287	139.8848	139.8513	139.9037	139.9577	140.0116	140.0635	140.1321	140.1478	140.0153	139.7805	139.3116	138.6128	137.8941	137.3311	136.9158	136.6691	136.576	136.5022	136.2857	135.9243	135.5038	135.0774	134.6758	134.2609	133.6169	132.8327	131.9877	131.093	130.2472	129.4528	128.7136	127.9623	127.0972	126.1032	125.0623	124.0263	123.1187	122.4811	122.1226	121.9917	122.0687	122.3431	122.734	123.1188	123.5144	123.9421	124.4005	124.8644	125.2981	125.7292	126.149	126.5631	127.0013	127.43	127.8393	128.3125	128.9296	129.659	130.4059	131.1712	131.9936	132.9617	134.0847	135.1455	136.1315	137.1427	138.2672	139.4874	140.6525	141.7797	143.0235	144.4752	146.1002	147.8487	149.5145	151.0136	152.2783	153.2603	154.209	154.8729	-9999	-9999	-9999	-9999	-9999	-9999	-9999	-9999	-9999	-9999	-9999	-9999	-9999	-9999	-9999	-9999	-9999	-9999	-9999	-9999	-9999	-9999	-9999	-9999	-9999	-9999	-9999	-9999	-9999	-9999	-9999	-9999	-9999	-9999	-9999	-9999	-9999	-9999	-9999	-9999	-9999	-9999
-9999	-9999	-9999	-9999	-9999	-9999	-9999	-9999	-9999	-9999	-9999	-9999	-9999	-9999	-9999	-9999	-9999	-9999	-9999	-9999	-9999	-9999	-9999	-9999	-9999	-9999	-9999	-9999	-9999	-9999	-9999	-9999	-9999	-9999	-9999	202.5708	202.5202	202.4306	202.3402	202.1817	201.9705	201.7511	201.5384	201.3146	201.0515	200.7088	200.3226	199.9532	199.6027	199.2555	198.9274	198.6168	198.3074	197.9921	197.6618	197.3452	197.043	196.7114	196.323	195.914	195.5278	195.0922	194.4486	193.5513	192.5826	191.6125	190.7034	189.8585	188.9731	188.1187	187.4214	186.7893	186.11	185.5372	185.1116	184.7195	184.2944	183.8244	183.2267	182.4804	181.6486	180.9074	180.5051	180.5561	180.8187	181.1833	181.621	181.9802	182.1179	182.213	182.2563	182.1584	181.9831	181.8395	181.8587	182.0407	182.2802	182.5323	182.8677	183.1715	183.3926	183.571	183.7063	183.7914	184.0722	184.3967	184.5442	184.6347	184.6684	184.6145	184.5179	184.4031	184.2035	183.9417	183.6613	183.3911	183.1147	182.7663	182.2754	181.7283	181.1665	180.563	179.9303	179.2568	178.6913	178.2264	177.7521	177.3331	177.0153	176.7999	176.6201	176.4171	176.2	175.9572	175.726	175.5056	175.299	175.1961	175.2215	175.2416	175.2178	175.2365	175.2799	175.3141	175.3152	175.2658	175.1609	175.0301	174.9149	174.8354	174.801	174.8229	174.896	175.0019	175.123	175.281	175.4867	175.6734	175.8049	175.8901	175.9316	175.9043	175.8117	175.6854	175.5564	175.4327	175.2788	175.0197	174.5791	173.9722	173.2522	172.4391	171.5707	170.67	169.5174	167.9161	165.9677	163.7748	161.5321	159.294	156.9475	154.495	152.1516	149.7387	147.229	144.8719	142.7638	140.9716	139.7462	139.0773	138.7207	138.6206	138.714	138.9445	139.7332	141.3337	142.9664	144.1152	144.8586	145.5704	146.5518	147.8864	149.3111	150.6544	151.9453	153.2701	154.6526	156.0384	157.2809	158.2082	158.7935	159.2329	159.5991	159.9831	160.2939	160.3687	160.4192	160.4631	160.4565	160.4021	160.3124	160.171	159.9002	159.5316	159.146	158.6472	157.7968	156.7477	155.686	154.6092	153.4603	152.2072	150.7074	149.0972	147.6563	146.4187	145.3475	144.4837	143.8316	143.3336	142.9866	142.8712	142.9092	143.0671	143.3741	143.7451	144.1748	144.6294	145.0043	145.2086	145.2576	145.2052	145.0166	144.7427	144.5531	144.503	144.491	144.4614	144.4274	144.391	144.3469	144.2984	144.247	144.1923	144.1386	144.0886	144.0501	144.0433	144.0694	144.1051	144.1372	144.166	144.1948	144.2102	144.1919	144.1166	143.8615	143.3516	142.6348	141.8123	140.971	140.2532	139.6875	139.2466	138.9452	138.7089	138.4551	138.1622	137.8189	137.3816	136.8551	136.2347	135.5314	134.7753	133.958	133.0443	132.0946	131.2485	130.5881	130.0583	129.5161	128.8026	127.988	127.2785	126.7595	126.4891	126.5286	126.8181	127.1826	127.5199	127.8423	128.1496	128.4362	128.722	129.0253	129.4198	129.8852	130.3874	130.925	131.4629	131.9669	132.408	132.8101	133.2211	133.6305	134.133	134.7516	135.4625	136.2569	137.0865	137.9497	138.8673	139.8789	140.9856	142.0774	143.0963	144.1174	145.3309	146.8547	148.5302	150.0899	151.4298	152.5722	153.5401	154.3997	154.797	-9999	-9999	-9999	-9999	-9999	-9999	-9999	-9999	-9999	-9999	-9999	-9999	-9999	-9999	-9999	-9999	-9999	-9999	-9999	-9999	-9999	-9999	-9999	-9999	-9999	-9999	-9999	-9999	-9999	-9999	-9999	-9999	-9999	-9999	-9999	-9999	-9999	-9999	-9999	-9999	-9999	-9999
-9999	-9999	-9999	-9999	-9999	-9999	-9999	-9999	-9999	-9999	-9999	-9999	-9999	-9999	-9999	-9999	-9999	-9999	-9999	-9999	-9999	-9999	-9999	-9999	-9999	-9999	-9999	-9999	-9999	-9999	-9999	-9999	-9999	-9999	-9999	202.5638	202.5181	202.4307	202.3371	202.1684	201.9677	201.7724	201.5611	201.3175	201.0564	200.7314	200.3723	200.0121	199.6312	199.2957	199.0088	198.721	198.4054	198.0753	197.7282	197.3795	197.0276	196.6419	196.2146	195.8054	195.4159	194.9258	194.2401	193.4225	192.5779	191.6673	190.7029	189.7925	188.9948	188.3319	187.8611	187.5275	187.2094	186.8832	186.5392	186.0504	185.4733	184.9325	184.2745	183.5156	182.7418	182.1327	181.8873	182.0337	182.4561	182.9932	183.5228	183.9372	184.1499	184.2421	184.2368	184.1359	183.9878	183.8348	183.7722	183.8062	183.8725	183.9515	184.088	184.2377	184.3601	184.4562	184.5077	184.4857	184.7258	185.0543	185.1539	185.1608	185.089	184.9236	184.7412	184.5657	184.3062	184.0195	183.7381	183.4487	183.1407	182.7788	182.2181	181.5755	180.9504	180.308	179.6452	178.942	178.3069	177.7775	177.3077	176.9049	176.5554	176.2624	175.9996	175.7411	175.5093	175.288	175.0654	174.8605	174.723	174.6755	174.5913	174.5174	174.527	174.5637	174.588	174.5901	174.5901	174.5596	174.4633	174.3574	174.2536	174.1602	174.095	174.0742	174.1046	174.1503	174.2346	174.3532	174.4617	174.6038	174.7252	174.8014	174.824	174.7752	174.7098	174.6093	174.4664	174.2997	174.0764	173.7169	173.1588	172.5221	171.8899	171.1439	170.2743	169.1369	167.7112	166.0761	164.1917	161.9864	159.6873	157.3319	154.8199	152.3659	150.1261	147.9709	145.6552	143.2511	141.2366	139.9116	139.2152	138.9512	138.9411	139.0739	139.6546	141.1964	143.4505	145.3793	146.4063	146.9502	147.4462	148.0944	149.0044	150.1051	151.3384	152.6206	153.9289	155.3355	156.8182	158.1311	159.067	159.6824	160.1584	160.5124	160.7371	160.9186	161.1584	161.3712	161.3079	161.2213	161.2021	161.1115	160.9613	160.7896	160.484	160.0717	159.6321	159.069	158.3055	157.3081	156.1745	155.0219	153.8564	152.6895	151.2832	149.6715	148.1691	146.89	145.7897	144.9022	144.4557	144.4989	144.7281	145.0736	145.3905	145.6561	145.9976	146.4486	146.9535	147.4719	147.9426	148.2682	148.4003	148.4029	148.2669	148.0124	147.7677	147.6268	147.5442	147.4725	147.4064	147.3522	147.3123	147.2779	147.2511	147.2342	147.2181	147.2019	147.1946	147.1952	147.2002	147.2151	147.2367	147.2753	147.3221	147.3731	147.4416	147.5116	147.4984	147.3938	147.1794	146.7662	146.1927	145.3868	144.4208	143.5052	142.7655	142.2305	141.8109	141.4302	141.0843	140.7874	140.5459	140.2599	139.8729	139.3832	138.6991	137.6342	136.439	135.361	134.4645	133.8766	133.4371	133.0209	132.6225	132.2629	131.9412	131.685	131.5662	131.5205	131.5032	131.7101	132.0051	132.2815	132.5493	132.8235	133.1123	133.4268	133.7597	134.0922	134.4152	134.7252	135.017	135.273	135.4994	135.7447	136.0714	136.5192	137.0538	137.6319	138.2562	138.9279	139.7045	140.5754	141.5079	142.4955	143.4484	144.3639	145.3366	146.5004	147.9201	149.4659	150.925	152.0805	152.976	153.8535	154.5221	-9999	-9999	-9999	-9999	-9999	-9999	-9999	-9999	-9999	-9999	-9999	-9999	-9999	-9999	-9999	-9999	-9999	-9999	-9999	-9999	-9999	-9999	-9999	-9999	-9999	-9999	-9999	-9999	-9999	-9999	-9999	-9999	-9999	-9999	-9999	-9999	-9999	-9999	-9999	-9999	-9999	-9999	-9999
-9999	-9999	-9999	-9999	-9999	-9999	-9999	-9999	-9999	-9999	-9999	-9999	-9999	-9999	-9999	-9999	-9999	-9999	-9999	-9999	-9999	-9999	-9999	-9999	-9999	-9999	-9999	-9999	-9999	-9999	-9999	-9999	-9999	-9999	-9999	202.548	202.5043	202.4213	202.3343	202.1834	201.9976	201.7903	201.5534	201.3094	201.0631	200.7587	200.4007	200.0333	199.6779	199.3771	199.0905	198.7812	198.4558	198.1163	197.751	197.378	196.9791	196.538	196.1036	195.6906	195.296	194.7998	194.1319	193.417	192.6993	191.8381	190.8934	190.0751	189.4023	188.9491	188.7434	188.6985	188.6595	188.4837	188.0578	187.4571	186.8328	186.207	185.4935	184.7229	184.0246	183.5846	183.5158	183.7516	184.1786	184.6825	185.1363	185.4786	185.7755	185.9202	185.9229	185.8501	185.7078	185.56	185.4213	185.3099	185.2155	185.1584	185.267	185.3566	185.3563	185.3475	185.3181	185.2454	185.3094	185.4624	185.5175	185.4671	185.3252	185.1362	184.9115	184.6437	184.3494	184.0496	183.7428	183.4152	183.0609	182.6497	182.0625	181.3947	180.7168	180.0165	179.3598	178.7295	178.0946	177.4717	176.9162	176.4477	176.0076	175.6208	175.3105	175.0441	174.8148	174.6127	174.3587	174.116	174.0069	173.93	173.8502	173.804	173.8038	173.8135	173.8228	173.8337	173.8487	173.8285	173.7309	173.598	173.4534	173.2971	173.1316	172.9783	172.8763	172.8685	172.9246	173.035	173.2187	173.3746	173.4758	173.548	173.601	173.6124	173.5588	173.4386	173.281	173.0715	172.7545	172.36	171.8884	171.3458	170.7019	169.856	168.7626	167.4399	165.9284	164.1848	162.1125	159.8309	157.4714	155.023	152.561	150.3481	148.3304	146.1086	143.4382	140.9528	139.7524	139.3633	139.2443	139.1617	139.4197	140.9509	143.4868	145.5966	146.7933	147.773	148.5183	149.1172	149.694	150.3056	151.0172	152.0322	153.2312	154.4782	155.7804	157.1493	158.4922	159.5859	160.4462	161.1468	161.634	161.9744	162.2067	162.2943	162.2733	162.2631	162.2278	162.1321	161.9835	161.7917	161.5524	161.2951	160.9738	160.5497	160.0295	159.4261	158.7419	157.7689	156.5667	155.3607	154.1253	152.8385	151.4646	150.0149	148.5991	147.3597	146.2899	145.5005	145.1488	145.3002	145.8706	146.5239	147.1354	147.7033	148.2348	148.827	149.4687	150.0834	150.6578	151.1446	151.3629	151.4773	151.5789	151.5728	151.4042	151.1527	150.8163	150.4715	150.1983	149.981	149.817	149.7053	149.6321	149.5785	149.5343	149.4879	149.4438	149.4186	149.4162	149.4323	149.4845	149.5757	149.696	149.8364	149.9879	150.1373	150.2564	150.336	150.3851	150.3961	150.3216	150.023	149.4802	148.761	147.9023	147.0888	146.3113	145.5769	144.9569	144.4387	144.0014	143.5916	143.1847	142.804	142.4587	142.0461	141.549	140.6915	139.4222	138.4098	137.7544	137.2472	136.7681	136.3475	135.9842	135.6447	135.3342	135.0332	134.816	134.912	135.1277	135.3171	135.4855	135.6373	135.778	135.9165	136.0574	136.2035	136.3633	136.5423	136.7576	137.0101	137.2912	137.6127	138.0042	138.4799	139.0269	139.6157	140.2199	140.8459	141.5596	142.3809	143.271	144.1667	144.9772	145.8269	146.8501	148.0594	149.3942	150.7298	151.9167	152.8705	153.6526	154.3505	154.7994	-9999	-9999	-9999	-9999	-9999	-9999	-9999	-9999	-9999	-9999	-9999	-9999	-9999	-9999	-9999	-9999	-9999	-9999	-9999	-9999	-9999	-9999	-9999	-9999	-9999	-9999	-9999	-9999	-9999	-9999	-9999	-9999	-9999	-9999	-9999	-9999	-9999	-9999	-9999	-9999	-9999	-9999	-9999
-9999	-9999	-9999	-9999	-9999	-9999	-9999	-9999	-9999	-9999	-9999	-9999	-9999	-9999	-9999	-9999	-9999	-9999	-9999	-9999	-9999	-9999	-9999	-9999	-9999	-9999	-9999	-9999	-9999	-9999	-9999	-9999	-9999	-9999	-9999	-9999	202.4924	202.4085	202.3292	202.2045	202.0212	201.7968	201.553	201.3086	201.0663	200.777	200.4265	200.0576	199.7195	199.4413	199.1499	198.8209	198.4849	198.1292	197.7502	197.3472	196.9134	196.4555	196.0069	195.5874	195.1966	194.7169	194.0916	193.4702	192.8636	192.1642	191.3473	190.5651	190.0174	189.8033	189.6456	189.4519	189.3698	189.2486	189.042	188.6598	188.0905	187.4493	186.8185	186.2838	185.8332	185.556	185.5795	185.762	186.1014	186.5429	186.9674	187.3018	187.5057	187.6013	187.644	187.6223	187.4735	187.2419	187.033	186.8456	186.6412	186.4732	186.4093	186.3775	186.3127	186.2229	186.128	186.0415	185.9835	185.9507	185.8997	185.7821	185.5894	185.3439	185.0652	184.7713	184.4741	184.132	183.7428	183.3405	182.9064	182.3691	181.759	181.1122	180.495	179.899	179.1899	178.4775	177.8192	177.2229	176.6657	176.0548	175.472	174.9887	174.5832	174.2163	173.8842	173.5618	173.3278	173.191	173.0528	172.934	172.8751	172.8711	172.8914	172.9314	172.9949	173.0755	173.1268	173.1095	173.0308	172.8963	172.683	172.4111	172.125	171.8704	171.7325	171.6979	171.7224	171.7924	171.9118	172.0757	172.2251	172.3334	172.4117	172.4492	172.434	172.3532	172.1864	171.9272	171.5957	171.2082	170.7484	170.1721	169.4059	168.3868	167.1749	165.8202	164.1965	162.1765	159.8927	157.5413	155.1221	152.7054	150.5249	148.5665	146.4666	143.5468	140.7708	139.6801	139.4931	139.4522	139.4795	140.4293	142.755	145.1876	146.9288	148.0212	148.8714	149.6825	150.4402	151.1163	151.8353	152.5373	153.1178	153.9725	155.0509	156.1765	157.364	158.6547	159.8876	160.9686	161.8629	162.5652	163.0714	163.3342	163.3935	163.3503	163.2635	163.1366	162.9838	162.8383	162.6688	162.4334	162.1508	161.8102	161.4006	160.9196	160.3649	159.7362	159.0492	158.138	156.8951	155.4591	154.0566	152.7224	151.4301	150.1625	148.9332	147.8028	146.8743	146.2769	146.1462	146.534	147.2899	148.1296	148.9113	149.6377	150.3415	151.0582	151.8866	152.7227	153.4566	154.0777	154.4854	154.7074	154.7544	154.6238	154.3576	153.9983	153.5683	153.1412	152.7681	152.4283	152.132	151.9333	151.824	151.7257	151.5957	151.4739	151.3675	151.2821	151.2481	151.2813	151.3475	151.5038	151.7433	151.996	152.2502	152.5086	152.6937	152.8009	152.9048	153.0136	153.0923	153.0739	153.0269	152.9184	152.4237	151.3979	150.2388	149.2407	148.3663	147.6531	147.08	146.5231	145.9083	145.2717	144.6413	144.0258	143.4328	142.8855	142.3782	141.8581	141.3265	140.7343	140.1157	139.5798	139.1161	138.7073	138.282	137.8596	137.5573	137.3792	137.2979	137.2839	137.3073	137.3446	137.3973	137.469	137.5629	137.6737	137.7944	137.9481	138.1609	138.44	138.7894	139.2218	139.7294	140.2775	140.8491	141.4422	142.0549	142.713	143.4473	144.2463	145.0647	145.8813	146.7216	147.6359	148.6613	149.8192	151.0531	152.1075	152.9213	153.6743	154.4475	154.9887	154.9542	-9999	-9999	-9999	-9999	-9999	-9999	-9999	-9999	-9999	-9999	-9999	-9999	-9999	-9999	-9999	-9999	-9999	-9999	-9999	-9999	-9999	-9999	-9999	-9999	-9999	-9999	-9999	-9999	-9999	-9999	-9999	-9999	-9999	-9999	-9999	-9999	-9999	-9999	-9999	-9999	-9999	-9999	-9999
-9999	-9999	-9999	-9999	-9999	-9999	-9999	-9999	-9999	-9999	-9999	-9999	-9999	-9999	-9999	-9999	-9999	-9999	-9999	-9999	-9999	-9999	-9999	-9999	-9999	-9999	-9999	-9999	-9999	-9999	-9999	-9999	-9999	-9999	-9999	-9999	-9999	202.3874	202.3145	202.1875	202.0127	201.8051	201.5663	201.321	201.0773	200.785	200.4389	200.097	199.791	199.488	199.175	198.8497	198.4996	198.1242	197.7293	197.3098	196.8602	196.4007	195.9662	195.5371	195.1309	194.665	194.0733	193.5058	193.0001	192.4924	191.8821	191.2117	190.7302	190.6411	190.4753	190.115	189.9601	189.8043	189.5898	189.3343	189.0404	188.6634	188.1676	187.718	187.4477	187.3313	187.352	187.6279	188.0003	188.3546	188.6858	188.9372	189.0579	189.0676	189.0639	189.0311	188.8398	188.5465	188.2719	188.0044	187.71	187.4629	187.2469	187.1326	187.0652	186.9423	186.7957	186.601	186.45	186.3536	186.2243	186.0404	185.7982	185.5117	185.2065	184.8937	184.5427	184.1142	183.6319	183.1558	182.6526	182.0205	181.4101	180.7987	180.1616	179.5443	178.8737	178.2231	177.6123	177.0383	176.4484	175.7059	174.9797	174.311	173.6369	173.046	172.6929	172.4684	172.3247	172.2434	172.1294	171.98	171.8743	171.8626	171.9431	172.0883	172.2377	172.3802	172.4995	172.5561	172.5189	172.37	172.1151	171.7682	171.3663	170.9905	170.7311	170.6183	170.5765	170.5729	170.6826	170.8661	171.0535	171.1908	171.274	171.3353	171.3559	171.3163	171.1685	170.8828	170.5086	170.0822	169.5383	168.8078	167.8999	166.8605	165.7203	164.2369	162.2378	159.9289	157.6009	155.2599	152.8783	150.5513	148.4482	146.5404	144.2456	141.5957	139.8288	139.5643	139.5544	140.1221	142.0426	144.6268	146.4837	147.8199	148.8879	149.8261	150.6872	151.4915	152.2723	153.0204	153.7334	154.4235	155.1316	155.9297	156.8372	157.825	158.9084	160.1197	161.3307	162.38	163.2357	163.9645	164.5111	164.6223	164.5093	164.3537	164.1404	163.9265	163.7172	163.4938	163.2488	162.972	162.6249	162.1937	161.6764	161.115	160.5446	159.9328	159.2608	158.3883	157.1166	155.4847	153.8459	152.4566	151.2343	150.1405	149.2892	148.6502	148.146	147.9455	148.1022	148.4938	149.2259	150.092	150.9039	151.6843	152.5269	153.4464	154.5123	155.5769	156.497	157.2436	157.6427	157.7756	157.743	157.5496	157.1795	156.6485	156.045	155.4954	155.0489	154.6778	154.4033	154.2271	154.1178	154.0341	153.9502	153.8667	153.7825	153.7249	153.7325	153.8123	153.9571	154.1847	154.4225	154.5665	154.6258	154.6676	154.6449	154.5585	154.5057	154.5113	154.4591	154.3201	154.1414	153.9077	153.5728	153.2487	152.9238	152.2773	151.2117	150.1951	149.3213	148.5746	147.9038	147.2268	146.5203	145.8308	145.2021	144.6359	144.1158	143.6282	143.172	142.7535	142.3585	141.9611	141.5565	141.1696	140.7415	140.2794	139.8833	139.5386	139.2506	139.0622	138.9607	138.8752	138.8134	138.8124	138.8754	138.9629	139.0518	139.1847	139.4097	139.8095	140.3585	140.8978	141.4364	141.9845	142.5586	143.1647	143.786	144.467	145.2022	146.0303	146.937	147.7794	148.6122	149.5059	150.5036	151.565	152.5366	153.3159	154.0118	154.7104	155.2324	155.327	-9999	-9999	-9999	-9999	-9999	-9999	-9999	-9999	-9999	-9999	-9999	-9999	-9999	-9999	-9999	-9999	-9999	-9999	-9999	-9999	-9999	-9999	-9999	-9999	-9999	-9999	-9999	-9999	-9999	-9999	-9999	-9999	-9999	-9999	-9999	-9999	-9999	-9999	-9999	-9999	-9999	-9999	-9999	-9999
-9999	-9999	-9999	-9999	-9999	-9999	-9999	-9999	-9999	-9999	-9999	-9999	-9999	-9999	-9999	-9999	-9999	-9999	-9999	-9999	-9999	-9999	-9999	-9999	-9999	-9999	-9999	-9999	-9999	-9999	-9999	-9999	-9999	-9999	-9999	-9999	-9999	-9999	202.2879	202.1562	201.9912	201.808	201.5789	201.3419	201.1043	200.8163	200.4741	200.1368	199.8333	199.5385	199.2134	198.86	198.4999	198.1214	197.713	197.2761	196.8298	196.3921	195.9618	195.5305	195.1238	194.6806	194.1567	193.6902	193.2754	192.8533	192.3838	191.9177	191.5917	191.4714	191.2133	190.7771	190.5237	190.3327	190.1342	189.907	189.6464	189.3772	189.1594	188.9753	188.827	188.7885	188.8847	189.0103	189.1403	189.314	189.4865	189.5547	189.5824	189.5447	189.4907	189.4557	189.3574	189.239	189.1101	188.8704	188.5168	188.2132	187.9538	187.7523	187.5984	187.4486	187.2787	187.0453	186.8607	186.7084	186.4784	186.2227	185.9388	185.6119	185.2674	184.9139	184.4828	183.9592	183.4135	182.8636	182.2486	181.5765	180.9604	180.3514	179.6958	179.0744	178.5423	177.996	177.438	176.8767	176.2108	175.4145	174.5836	173.6275	172.5916	171.7959	171.3624	171.2489	171.3206	171.3836	171.2779	171.0455	170.8783	170.8851	171.0455	171.2918	171.5412	171.7588	171.9266	172.0144	171.9857	171.8302	171.5535	171.2028	170.796	170.3141	169.8645	169.5928	169.5079	169.5138	169.5705	169.7155	169.9124	170.0715	170.1619	170.2207	170.2444	170.2124	170.061	169.7475	169.3137	168.7532	168.0809	167.2855	166.3791	165.4125	164.142	162.2683	159.9805	157.6983	155.4241	153.0754	150.6984	148.4017	146.3095	144.5195	142.6747	140.9847	140.1048	140.344	141.5186	143.602	145.8056	147.3952	148.5845	149.6478	150.6455	151.5807	152.4745	153.3109	154.067	154.7879	155.4969	156.2039	156.9401	157.6943	158.5842	159.6144	160.7001	161.8261	162.9148	163.9376	164.6538	164.9578	165.1328	165.1926	165.1402	165.0214	164.8722	164.6902	164.4749	164.2069	163.8875	163.5297	163.1233	162.6691	162.1375	161.5353	160.8958	160.2098	159.4532	158.5503	157.2894	155.5836	153.7646	152.2355	151.1098	150.3423	149.9613	149.9611	149.9318	150.0205	150.3552	150.7488	151.4061	152.2121	153.0332	153.918	154.9943	156.2248	157.3394	158.1071	158.5894	158.9586	159.1578	159.1902	159.1107	158.9611	158.7486	158.4635	158.153	157.7038	157.129	156.7248	156.5185	156.4569	156.476	156.527	156.5876	156.6609	156.7512	156.8644	157.0059	157.1795	157.3836	157.5848	157.6227	157.4398	157.2128	156.9026	156.5909	156.3186	156.0238	155.7332	155.5497	155.3788	155.1557	154.9108	154.5654	154.1469	153.67	153.2276	152.804	152.1092	151.2561	150.3572	149.4959	148.7556	148.0749	147.4388	146.8185	146.2265	145.7233	145.3001	144.8895	144.4958	144.1371	143.7764	143.412	143.042	142.6671	142.2823	141.8865	141.4981	141.1592	140.9119	140.7415	140.5907	140.4626	140.4393	140.5226	140.6396	140.7753	140.9723	141.2686	141.6771	142.1681	142.6759	143.1547	143.6593	144.1994	144.7354	145.3479	146.2565	147.3292	148.3284	149.1819	149.9105	150.606	151.3241	152.157	153.0563	153.7872	154.648	155.4207	155.8429	156.0188	155.9407	-9999	-9999	-9999	-9999	-9999	-9999	-9999	-9999	-9999	-9999	-9999	-9999	-9999	-9999	-9999	-9999	-9999	-9999	-9999	-9999	-9999	-9999	-9999	-9999	-9999	-9999	-9999	-9999	-9999	-9999	-9999	-9999	-9999	-9999	-9999	-9999	-9999	-9999	-9999	-9999	-9999	-9999	-9999	-9999
-9999	-9999	-9999	-9999	-9999	-9999	-9999	-9999	-9999	-9999	-9999	-9999	-9999	-9999	-9999	-9999	-9999	-9999	-9999	-9999	-9999	-9999	-9999	-9999	-9999	-9999	-9999	-9999	-9999	-9999	-9999	-9999	-9999	-9999	-9999	-9999	-9999	-9999	-9999	202.1421	201.9935	201.8014	201.5846	201.3648	201.1433	200.8687	200.5352	200.1937	199.8637	199.5372	199.2072	198.8673	198.5044	198.1183	197.7099	197.2904	196.8318	196.3529	195.9822	195.6128	195.2245	194.8353	194.4176	194.0139	193.6194	193.2315	192.8751	192.5813	192.3419	192.2107	191.879	191.3483	191.0419	190.8054	190.6131	190.4464	190.2539	190.0329	189.8059	189.5979	189.4905	189.4832	189.4816	189.5487	189.6603	189.8634	190.0986	190.1597	190.1691	190.0841	189.9548	189.8765	189.7668	189.6219	189.4453	189.2679	189.0883	188.8506	188.5963	188.3354	188.1041	187.9204	187.7025	187.4512	187.2305	186.9995	186.685	186.3473	185.9914	185.6471	185.2788	184.8165	184.2971	183.7186	183.1295	182.4831	181.721	181.0027	180.3834	179.7772	179.1652	178.6411	178.1993	177.7103	177.1736	176.5574	175.7322	174.7636	173.7585	172.7629	171.7431	170.7944	170.2901	170.2312	170.3786	170.5047	170.4576	170.1696	169.9221	169.9857	170.2964	170.6159	170.8911	171.137	171.3567	171.5132	171.5459	171.4172	171.1401	170.7646	170.2678	169.6171	169.0418	168.6128	168.3528	168.2748	168.2807	168.391	168.5794	168.7988	168.9821	169.0364	169.0194	168.9341	168.7248	168.3831	167.9389	167.3612	166.6499	165.8578	164.96	163.7529	162.0511	159.9652	157.8033	155.7146	153.5543	151.0982	148.513	146.2986	144.6228	143.0733	141.4166	140.7616	141.6374	143.0866	144.8521	146.5512	147.9734	149.1986	150.3371	151.3987	152.4237	153.3929	154.2659	155.0613	155.8111	156.5573	157.3111	158.0735	158.8663	159.6948	160.581	161.5302	162.5397	163.561	164.4007	164.9563	165.3315	165.6283	165.7808	165.779	165.7002	165.6022	165.469	165.2862	165.0805	164.8573	164.5504	164.1075	163.5856	163.0666	162.5327	161.9246	161.2294	160.4682	159.6476	158.7413	157.4607	155.5737	153.5074	151.9759	151.1802	150.8593	150.8157	151.0053	151.2445	151.5608	152.0452	152.6475	153.3681	154.1959	155.1599	156.2909	157.4558	158.3363	158.9424	159.3782	159.6783	159.8805	160.0083	160.0376	159.967	159.834	159.658	159.4164	159.1531	158.8701	158.5923	158.418	158.3217	158.3502	158.4646	158.5635	158.6459	158.724	158.8275	158.956	159.0914	159.2268	159.3396	159.391	159.358	159.2167	158.922	158.5107	158.0023	157.5031	157.1304	156.8281	156.5679	156.291	156.0071	155.7461	155.415	154.9863	154.4949	154.0034	153.5405	153.0655	152.5033	151.7566	150.8968	150.1136	149.4307	148.8277	148.2664	147.7553	147.3201	146.9227	146.5181	146.1463	145.8297	145.5148	145.2011	144.8651	144.506	144.141	143.776	143.4326	143.1366	142.9108	142.7523	142.6442	142.5876	142.612	142.7124	142.8601	143.0506	143.3009	143.6011	143.9299	144.2626	144.5692	144.8475	145.1893	145.7876	146.8175	148.2168	149.5797	150.6065	151.3286	151.8866	152.3131	152.757	153.4126	154.3184	155.2852	156.0671	156.5598	156.7334	156.6949	156.5789	-9999	-9999	-9999	-9999	-9999	-9999	-9999	-9999	-9999	-9999	-9999	-9999	-9999	-9999	-9999	-9999	-9999	-9999	-9999	-9999	-9999	-9999	-9999	-9999	-9999	-9999	-9999	-9999	-9999	-9999	-9999	-9999	-9999	-9999	-9999	-9999	-9999	-9999	-9999	-9999	-9999	-9999	-9999	-9999	-9999
-9999	-9999	-9999	-9999	-9999	-9999	-9999	-9999	-9999	-9999	-9999	-9999	-9999	-9999	-9999	-9999	-9999	-9999	-9999	-9999	-9999	-9999	-9999	-9999	-9999	-9999	-9999	-9999	-9999	-9999	-9999	-9999	-9999	-9999	-9999	-9999	-9999	-9999	-9999	-9999	201.961	201.7831	201.5863	201.3822	201.1787	200.9208	200.5914	200.2415	199.8986	199.5562	199.214	198.8784	198.5343	198.1559	197.7605	197.3611	196.9603	196.5651	196.1745	195.788	195.4131	195.0595	194.7241	194.3739	193.9941	193.6176	193.3154	193.1019	192.8621	192.5595	192.1795	191.8087	191.5614	191.3078	191.157	191.0577	190.8832	190.6807	190.4037	190.2137	190.1671	190.1548	190.1387	190.1688	190.2469	190.3318	190.4585	190.6668	190.7163	190.5507	190.364	190.2672	190.1478	189.991	189.8098	189.6275	189.4513	189.262	189.0814	188.8807	188.6302	188.3427	188.0551	187.7928	187.5249	187.2074	186.8288	186.4034	185.9603	185.5114	185.0492	184.5595	184.0123	183.399	182.6833	181.8747	181.0219	180.1121	179.4142	178.8861	178.3747	177.9286	177.4983	177.0978	176.6028	175.8864	174.999	174.0276	173.0354	172.0794	171.1805	170.3439	169.6848	169.3754	169.342	169.367	169.3293	169.1315	168.9569	169.0105	169.3002	169.7105	170.1473	170.5103	170.7856	170.986	171.0487	170.9373	170.6714	170.2045	169.5207	168.7755	168.0972	167.3531	166.668	166.3823	166.507	166.8776	167.2695	167.5638	167.7355	167.7674	167.7146	167.5742	167.3369	167.0109	166.565	166.0283	165.4074	164.5801	163.3689	161.7467	159.8423	157.8831	155.9903	154.0193	151.7039	148.8713	146.373	144.7436	143.3188	141.881	141.2285	142.0267	143.8184	145.6425	147.1753	148.5398	149.7952	150.9472	152.1124	153.2184	154.2083	155.1066	155.9783	156.8384	157.6557	158.4406	159.2304	160.0488	160.888	161.7407	162.6193	163.5127	164.2947	164.8179	165.2005	165.6112	166.0092	166.2751	166.4277	166.4206	166.3145	166.1908	166.0555	165.8793	165.6688	165.3912	165.0311	164.5888	164.0298	163.4488	162.858	162.2238	161.5263	160.7243	159.8384	158.885	157.5671	155.6245	153.5717	152.1695	151.6239	151.595	151.7532	152.0692	152.496	153.0322	153.6809	154.4147	155.2722	156.2352	157.246	158.1916	158.9315	159.4437	159.8461	160.1974	160.4857	160.705	160.8134	160.8175	160.7543	160.6377	160.4564	160.2222	159.9992	159.8067	159.6222	159.4918	159.5454	159.6382	159.6807	159.7368	159.7906	159.9148	160.071	160.2125	160.3348	160.4087	160.451	160.4304	160.3108	160.0866	159.7604	159.3695	158.9547	158.5104	158.0446	157.6333	157.2757	156.9648	156.6851	156.3924	156.0522	155.6071	155.1582	154.7241	154.1956	153.6542	153.1447	152.6075	151.9669	151.2637	150.6286	150.0872	149.6101	149.1875	148.8143	148.4452	148.1032	147.8033	147.5197	147.2303	146.937	146.6216	146.2862	145.9478	145.618	145.3362	145.1042	144.9042	144.7558	144.709	144.7706	144.9041	145.0821	145.2876	145.4917	145.6897	145.8945	146.1159	146.3436	146.5601	146.8157	147.5315	149.0798	151.0434	152.4163	153.0732	153.4567	153.8615	154.2654	154.6796	155.2562	155.9955	156.8414	157.6215	157.8955	157.6845	157.3489	157.0914	-9999	-9999	-9999	-9999	-9999	-9999	-9999	-9999	-9999	-9999	-9999	-9999	-9999	-9999	-9999	-9999	-9999	-9999	-9999	-9999	-9999	-9999	-9999	-9999	-9999	-9999	-9999	-9999	-9999	-9999	-9999	-9999	-9999	-9999	-9999	-9999	-9999	-9999	-9999	-9999	-9999	-9999	-9999	-9999	-9999	-9999
-9999	-9999	-9999	-9999	-9999	-9999	-9999	-9999	-9999	-9999	-9999	-9999	-9999	-9999	-9999	-9999	-9999	-9999	-9999	-9999	-9999	-9999	-9999	-9999	-9999	-9999	-9999	-9999	-9999	-9999	-9999	-9999	-9999	-9999	-9999	-9999	-9999	-9999	-9999	-9999	-9999	-9999	-9999	201.3814	201.1885	200.9308	200.6119	200.2682	199.9122	199.5758	199.2468	198.9125	198.582	198.238	197.8801	197.513	197.1459	196.7858	196.4271	196.0742	195.7145	195.3631	195.0584	194.771	194.4325	194.0663	193.7528	193.4977	193.2144	193.0068	192.7316	192.3297	192.0621	191.8082	191.6552	191.5891	191.4717	191.2782	191.0171	190.8492	190.7944	190.7861	190.8357	190.8083	190.8038	190.8609	190.9654	191.1656	191.1405	190.9295	190.7426	190.6198	190.497	190.3556	190.1851	189.9946	189.807	189.6219	189.4204	189.2287	189.0199	188.7328	188.4022	188.0741	187.7085	187.3094	186.911	186.4244	185.8899	185.3509	184.7934	184.1955	183.561	182.8453	181.9849	180.9784	179.9033	178.8814	178.1788	177.7	177.26	176.9116	176.6084	176.19	175.6123	174.8899	173.9983	173.0727	172.2262	171.4609	170.6893	169.8601	169.0831	168.5341	168.2559	168.1313	168.0196	167.8738	167.8205	167.9202	168.1417	168.4914	168.9397	169.4646	169.9662	170.2952	170.3805	170.2591	169.9156	169.3568	168.6516	167.8221	166.8064	165.7522	164.9282	164.5526	164.7375	165.3478	165.997	166.3895	166.5298	166.5416	166.4629	166.302	166.0757	165.7869	165.4135	164.8382	164.0179	162.8788	161.3699	159.7041	157.9587	156.1861	154.4064	152.3747	149.6753	146.9391	144.9532	143.61	142.4024	141.6379	142.2522	144.0229	145.9325	147.6037	149.0925	150.4585	151.6713	152.7918	153.9345	155.0018	155.9613	156.8752	157.7903	158.6916	159.546	160.3623	161.1896	162.0527	162.9171	163.7749	164.4708	164.9401	165.3073	165.6647	165.9976	166.2529	166.5291	166.8609	167.0191	167.0423	166.9557	166.799	166.6362	166.4391	166.1852	165.8361	165.4211	164.9953	164.4979	163.8572	163.1281	162.399	161.6349	160.7381	159.8045	158.8161	157.4733	155.6978	154.1088	153.1107	152.75	152.8549	153.2124	153.6815	154.2313	154.861	155.5831	156.4191	157.3007	158.0882	158.7618	159.3463	159.8228	160.2938	160.7011	160.9967	161.2216	161.3945	161.4997	161.5281	161.4733	161.355	161.2209	161.0496	160.9052	160.7605	160.5534	160.4201	160.5694	160.7111	160.694	160.7453	160.9132	161.0284	161.1172	161.1998	161.2115	161.2309	161.2284	161.1491	160.9571	160.6652	160.3498	160.1399	159.7896	159.2518	158.8216	158.46	158.071	157.6798	157.3405	157.0083	156.6194	156.1727	155.7071	155.2225	154.6998	154.1867	153.6978	153.2265	152.755	152.2588	151.7507	151.2576	150.8365	150.5044	150.2058	149.9188	149.6635	149.4315	149.1985	148.963	148.7005	148.3792	148.0259	147.6857	147.3551	147.0298	146.7971	146.6578	146.5513	146.5253	146.6313	146.8136	147.003	147.1887	147.3727	147.5488	147.7419	147.9598	148.1948	148.5176	149.1068	150.1363	151.6941	153.4208	154.5398	155.1904	155.6771	156.1268	156.5986	157.1143	157.6764	158.2721	158.8411	159.163	158.9353	158.3759	157.834	-9999	-9999	-9999	-9999	-9999	-9999	-9999	-9999	-9999	-9999	-9999	-9999	-9999	-9999	-9999	-9999	-9999	-9999	-9999	-9999	-9999	-9999	-9999	-9999	-9999	-9999	-9999	-9999	-9999	-9999	-9999	-9999	-9999	-9999	-9999	-9999	-9999	-9999	-9999	-9999	-9999	-9999	-9999	-9999	-9999	-9999	-9999
-9999	-9999	-9999	-9999	-9999	-9999	-9999	-9999	-9999	-9999	-9999	-9999	-9999	-9999	-9999	-9999	-9999	-9999	-9999	-9999	-9999	-9999	-9999	-9999	-9999	-9999	-9999	-9999	-9999	-9999	-9999	-9999	-9999	-9999	-9999	-9999	-9999	-9999	-9999	-9999	-9999	-9999	-9999	-9999	-9999	200.8762	200.5669	200.2258	199.8838	199.5679	199.2651	198.9576	198.6442	198.3185	197.9787	197.6353	197.2999	196.9721	196.6512	196.332	196.026	195.7283	195.4208	195.1334	194.8387	194.5149	194.1848	193.8786	193.5833	193.3676	193.1261	192.7997	192.5673	192.4013	192.2491	192.0935	191.9308	191.7552	191.6054	191.4927	191.4249	191.4177	191.4464	191.4183	191.3642	191.3556	191.3788	191.3724	191.3332	191.2536	191.125	190.9717	190.8339	190.7043	190.5578	190.3702	190.1464	189.9312	189.7301	189.5199	189.2962	189.0616	188.7691	188.366	187.8748	187.3533	186.7747	186.0799	185.6409	185.2221	184.5121	183.7667	183.0591	182.1635	181.0248	179.771	178.5156	177.4809	176.8314	176.4984	176.2254	175.8336	175.3792	174.869	174.3001	173.6376	172.8429	172.0395	171.312	170.6519	170.0038	169.326	168.5867	167.9111	167.3793	166.9819	166.7265	166.5701	166.4198	166.3216	166.4545	166.8871	167.4321	167.9634	168.4219	168.7485	168.9188	168.8687	168.5822	168.1012	167.476	166.706	165.7347	164.6681	163.7757	163.3487	163.5433	164.1454	164.7968	165.2518	165.4518	165.4542	165.3654	165.2635	165.0544	164.6149	164.0472	163.2408	162.099	160.6769	159.143	157.6888	156.2242	154.7132	152.93	150.4624	147.555	145.3663	144.0292	142.796	141.8548	142.4344	144.217	146.1926	147.9714	149.6244	151.119	152.4325	153.638	154.7973	155.8748	156.8684	157.8214	158.7426	159.6202	160.488	161.3485	162.2095	163.1082	163.9828	164.6564	165.1181	165.5051	165.8947	166.2524	166.5663	166.8436	167.0709	167.2076	167.3153	167.5357	167.6334	167.5673	167.4215	167.1918	166.9045	166.6072	166.2819	165.8899	165.4341	164.911	164.271	163.5053	162.6553	161.7188	160.6293	159.6066	158.626	157.4378	156.1409	155.2783	154.6792	154.4245	154.6712	155.0879	155.6357	156.2637	156.9081	157.5807	158.3054	158.9552	159.4835	159.9456	160.3868	160.8002	161.1757	161.4842	161.7407	161.95	162.0701	162.1475	162.2104	162.212	162.1374	162.0592	161.9367	161.7749	161.5816	161.4162	161.4169	161.4748	161.5257	161.5766	161.6213	161.6651	161.7197	161.7665	161.7991	161.8293	161.8278	161.7793	161.6811	161.5444	161.3674	161.1105	160.7345	160.3058	159.8713	159.4248	159.0422	158.7332	158.417	158.0606	157.6783	157.1831	156.6956	156.2229	155.7012	155.1979	154.7583	154.3105	153.8461	153.4268	153.0538	152.6857	152.3236	152.0146	151.7608	151.522	151.3311	151.1832	151.0338	150.8662	150.7015	150.5138	150.2897	149.9786	149.5679	149.1246	148.5673	148.1575	148.045	148.0788	148.1848	148.342	148.5182	148.6857	148.8515	149.0237	149.214	149.4252	149.6642	149.9642	150.3799	150.9042	151.8603	153.498	155.3394	156.5064	157.1575	157.7009	158.2147	158.6221	158.9647	159.2821	159.5942	159.8566	159.9024	159.5382	158.9798	-9999	-9999	-9999	-9999	-9999	-9999	-9999	-9999	-9999	-9999	-9999	-9999	-9999	-9999	-9999	-9999	-9999	-9999	-9999	-9999	-9999	-9999	-9999	-9999	-9999	-9999	-9999	-9999	-9999	-9999	-9999	-9999	-9999	-9999	-9999	-9999	-9999	-9999	-9999	-9999	-9999	-9999	-9999	-9999	-9999	-9999	-9999	-9999
-9999	-9999	-9999	-9999	-9999	-9999	-9999	-9999	-9999	-9999	-9999	-9999	-9999	-9999	-9999	-9999	-9999	-9999	-9999	-9999	-9999	-9999	-9999	-9999	-9999	-9999	-9999	-9999	-9999	-9999	-9999	-9999	-9999	-9999	-9999	-9999	-9999	-9999	-9999	-9999	-9999	-9999	-9999	-9999	-9999	-9999	200.4465	200.1452	199.8659	199.5667	199.2537	198.9553	198.6522	198.341	198.0161	197.695	197.3913	197.0955	196.8127	196.5402	196.2678	195.9972	195.7359	195.4557	195.1661	194.8705	194.5589	194.2426	193.9385	193.7155	193.5109	193.2524	193.0302	192.851	192.6944	192.5406	192.3823	192.2336	192.1153	192.0434	192.008	191.9825	191.9535	191.9291	191.8902	191.8451	191.8181	191.7792	191.712	191.6109	191.476	191.3218	191.1713	191.0203	190.8566	190.6608	190.4304	190.2038	190.0211	189.8192	189.5636	189.3022	189.0088	188.5626	188.0259	187.467	186.7793	185.9428	185.1923	184.5324	183.8745	183.207	182.3092	181.0882	179.66	178.2263	177.0258	176.3452	175.9352	175.5112	175.1644	174.9704	174.4826	173.706	172.9919	172.3858	171.6247	170.8718	170.3372	169.8639	169.2053	168.4278	167.6169	166.776	166.1091	165.7978	165.6123	165.3545	165.0557	164.8328	164.8067	165.0973	165.5222	166.0014	166.4591	166.7737	166.9608	167.0152	166.9273	166.7466	166.475	165.9652	165.1534	164.1225	163.1413	162.556	162.5396	162.967	163.5126	163.9339	164.1577	164.133	163.9875	163.7884	163.4148	162.7581	161.9283	160.9469	159.8108	158.5383	157.1777	155.8613	154.5884	153.2086	151.1885	148.3221	145.9318	144.4108	143.1932	142.3212	142.7181	144.4315	146.4931	148.4163	150.2798	151.8726	153.2033	154.4237	155.6431	156.8212	157.8717	158.7934	159.6619	160.5274	161.3867	162.2399	163.0977	163.9645	164.7084	165.2315	165.6804	166.0859	166.473	166.8374	167.1522	167.4444	167.6944	167.8977	168.0492	168.126	168.1357	168.1765	168.1403	167.9568	167.7364	167.4823	167.1852	166.8169	166.3721	165.8718	165.3177	164.704	163.967	163.075	162.05	160.8714	159.6604	158.5521	157.6158	156.9308	156.6489	156.3096	156.2048	156.6483	157.0767	157.6113	158.2616	158.8888	159.4456	160.0081	160.5329	160.9913	161.3752	161.6922	161.9594	162.1616	162.3176	162.4498	162.5565	162.6428	162.7403	162.8208	162.8596	162.8572	162.7906	162.6792	162.5484	162.3832	162.2249	162.2035	162.2285	162.2458	162.2599	162.2683	162.2824	162.3051	162.3133	162.3056	162.2945	162.246	162.0874	161.8965	161.7965	161.7358	161.5378	161.1867	160.7425	160.2848	159.8845	159.5521	159.2398	158.9378	158.6145	158.1755	157.616	157.0861	156.654	156.2494	155.8135	155.3904	154.9776	154.5713	154.1902	153.8314	153.4766	153.1936	152.9848	152.7917	152.6231	152.5054	152.4315	152.3692	152.2984	152.2241	152.1465	152.1026	151.9049	151.3497	150.6213	150.012	149.6034	149.5208	149.8029	150.0591	150.1786	150.2623	150.3766	150.4917	150.6186	150.7899	151.0302	151.2961	151.5695	152.0744	153.3847	155.3715	157.1841	158.2295	158.7107	159.0227	159.3116	159.5645	159.8047	160.0333	160.2326	160.3336	160.2999	160.1452	159.8412	-9999	-9999	-9999	-9999	-9999	-9999	-9999	-9999	-9999	-9999	-9999	-9999	-9999	-9999	-9999	-9999	-9999	-9999	-9999	-9999	-9999	-9999	-9999	-9999	-9999	-9999	-9999	-9999	-9999	-9999	-9999	-9999	-9999	-9999	-9999	-9999	-9999	-9999	-9999	-9999	-9999	-9999	-9999	-9999	-9999	-9999	-9999	-9999	-9999
-9999	-9999	-9999	-9999	-9999	-9999	-9999	-9999	-9999	-9999	-9999	-9999	-9999	-9999	-9999	-9999	-9999	-9999	-9999	-9999	-9999	-9999	-9999	-9999	-9999	-9999	-9999	-9999	-9999	-9999	-9999	-9999	-9999	-9999	-9999	-9999	-9999	-9999	-9999	-9999	-9999	-9999	-9999	-9999	-9999	-9999	-9999	-9999	-9999	-9999	-9999	-9999	198.5964	198.2925	197.9804	197.6691	197.3811	197.1287	196.8894	196.6503	196.4154	196.1896	195.9617	195.7082	195.431	195.1614	194.8973	194.6005	194.3019	194.0715	193.8536	193.5939	193.3944	193.2211	193.0572	192.9112	192.78	192.6608	192.5725	192.53	192.5141	192.4953	192.4707	192.4476	192.4146	192.3699	192.3214	192.2521	192.157	192.0318	191.8727	191.6888	191.5037	191.3132	191.1013	190.8756	190.6658	190.4849	190.2866	190.058	189.7973	189.4832	189.1302	188.6491	188.0565	187.4484	186.7877	185.9092	184.9539	184.1167	183.4029	182.5743	181.2431	179.5214	177.8561	176.6897	176.1403	175.8061	175.3872	174.8914	174.4012	173.9257	173.6091	173.0235	172.2142	171.5337	170.7869	170.1143	169.5159	169.0396	168.5828	167.7327	166.633	165.5923	164.8815	164.5844	164.4974	164.2805	163.9714	163.7325	163.6335	163.7724	164.0441	164.4014	164.8048	165.1623	165.4375	165.623	165.7978	165.8848	165.7014	165.2702	164.5873	163.6406	162.5941	161.752	161.2745	161.2099	161.406	161.6607	161.845	161.8495	161.6349	161.2575	160.768	160.1496	159.4282	158.5297	157.5279	156.4924	155.3444	154.191	152.928	151.2085	148.8857	146.4506	144.7953	143.6803	142.8363	142.9577	144.6126	146.6651	148.648	150.6709	152.5441	153.9572	155.1839	156.4067	157.6107	158.7254	159.6766	160.5426	161.3923	162.2367	163.0835	163.9324	164.663	165.256	165.7786	166.2626	166.694	167.0819	167.4236	167.7264	168.0166	168.2884	168.4874	168.6295	168.7447	168.8105	168.8186	168.7576	168.6821	168.589	168.4004	168.1353	167.7943	167.3688	166.8736	166.3381	165.7587	165.1296	164.383	163.4534	162.3549	161.1468	159.9114	158.8464	158.1324	157.7554	157.6238	157.5421	157.7603	158.4351	159.1453	159.8795	160.6254	161.2693	161.7401	162.0833	162.322	162.4996	162.6488	162.7737	162.8778	162.9646	163.0425	163.1153	163.1872	163.2675	163.3527	163.4311	163.5066	163.5673	163.5526	163.4286	163.2332	163.0891	163.0111	162.8185	162.677	162.6447	162.6329	162.6105	162.5923	162.609	162.6463	162.5836	162.3812	162.2682	162.2047	162.1004	161.9317	161.7391	161.6349	161.3942	160.9808	160.5456	160.1405	159.8168	159.4967	159.1252	158.6895	158.1922	157.7323	157.3165	156.9608	156.6405	156.2719	155.9213	155.5968	155.2701	154.9351	154.608	154.3006	154.0576	153.8692	153.6872	153.5264	153.4237	153.3743	153.3472	153.3217	153.2895	153.2468	153.133	152.7976	152.1609	151.3943	150.8142	150.5794	150.64	150.9258	151.4185	151.8176	151.9788	152.0264	152.0955	152.178	152.2977	152.5283	152.8917	153.581	155.0993	157.3751	159.2262	159.9324	160.0847	160.1689	160.2878	160.408	160.5104	160.551	160.5234	-9999	-9999	-9999	-9999	-9999	-9999	-9999	-9999	-9999	-9999	-9999	-9999	-9999	-9999	-9999	-9999	-9999	-9999	-9999	-9999	-9999	-9999	-9999	-9999	-9999	-9999	-9999	-9999	-9999	-9999	-9999	-9999	-9999	-9999	-9999	-9999	-9999	-9999	-9999	-9999	-9999	-9999	-9999	-9999	-9999	-9999	-9999	-9999	-9999	-9999	-9999	-9999	-9999	-9999
-9999	-9999	-9999	-9999	-9999	-9999	-9999	-9999	-9999	-9999	-9999	-9999	-9999	-9999	-9999	-9999	-9999	-9999	-9999	-9999	-9999	-9999	-9999	-9999	-9999	-9999	-9999	-9999	-9999	-9999	-9999	-9999	-9999	-9999	-9999	-9999	-9999	-9999	-9999	-9999	-9999	-9999	-9999	-9999	-9999	-9999	-9999	-9999	-9999	-9999	-9999	-9999	-9999	-9999	-9999	-9999	-9999	-9999	-9999	196.6679	196.4777	196.2714	196.0699	195.8915	195.6769	195.4165	195.1622	194.9131	194.633	194.3749	194.1329	193.8696	193.6565	193.4931	193.3468	193.2169	193.1222	193.0469	192.9963	192.9799	192.9891	192.9945	192.9761	192.9522	192.9375	192.9142	192.8586	192.7803	192.6665	192.5058	192.3071	192.0871	191.8475	191.5915	191.3284	191.0702	190.8334	190.6299	190.4529	190.2479	189.9646	189.6185	189.2326	188.743	188.1049	187.3359	186.4824	185.6232	184.6924	183.8079	182.9148	181.5337	179.6178	177.6693	176.3833	175.8469	175.4893	175.1579	174.9888	174.8818	174.5161	173.8453	173.1922	172.6079	172.0467	171.4617	170.7124	169.9297	169.1362	168.3577	167.6527	166.9245	166.0286	165.0371	164.2269	163.7891	163.6239	163.5061	163.3268	163.1014	162.9199	162.926	163.129	163.419	163.6674	163.8722	164.1803	164.5266	164.7913	164.8817	164.7331	164.3664	163.6848	162.7124	161.6013	160.5232	159.6832	159.1604	158.9721	159.0112	159.081	159.1052	158.9296	158.5483	158.0606	157.4921	156.8422	156.0909	155.2505	154.3758	153.4789	152.3646	150.8408	148.8081	146.6798	145.1666	144.0964	143.1286	143.122	144.7087	146.7221	148.6842	150.6222	152.5272	154.2514	155.7733	157.1196	158.3001	159.3582	160.363	161.3177	162.2077	163.0558	163.884	164.6474	165.2653	165.8261	166.3717	166.871	167.3123	167.7105	168.0762	168.394	168.6514	168.8598	169.0333	169.1779	169.2952	169.3796	169.4224	169.4222	169.3832	169.2995	169.1712	168.997	168.7418	168.4092	167.997	167.4846	166.8837	166.2558	165.5557	164.7434	163.7674	162.5945	161.471	160.4412	159.6411	159.2118	159.0257	159.0838	159.4862	160.2308	161.1631	162.1395	163.0535	163.6475	163.8927	164.0138	164.0782	163.9738	163.8494	163.825	163.8187	163.8129	163.8255	163.8613	163.9018	163.9499	164.0355	164.1322	164.2251	164.3151	164.3902	164.3962	164.1132	163.6945	163.4277	163.2717	-9999	-9999	-9999	-9999	-9999	-9999	-9999	-9999	-9999	-9999	-9999	-9999	-9999	-9999	-9999	-9999	-9999	160.9917	160.6751	160.3051	159.8582	159.43	159.0431	158.6329	158.187	157.7315	157.3923	157.1544	156.8825	156.5488	156.2419	155.975	155.7019	155.4225	155.1695	154.9231	154.7204	154.5487	154.3607	154.2045	154.147	154.0975	154.0112	153.9426	153.8521	153.6991	153.4425	152.9715	152.2886	151.6927	151.3921	151.1695	151.0913	151.4404	151.8518	152.4258	152.9439	153.1618	153.241	153.2994	153.4946	153.8548	154.5176	155.6306	156.8701	158.0993	159.1589	159.851	-9999	-9999	-9999	-9999	-9999	-9999	-9999	-9999	-9999	-9999	-9999	-9999	-9999	-9999	-9999	-9999	-9999	-9999	-9999	-9999	-9999	-9999	-9999	-9999	-9999	-9999	-9999	-9999	-9999	-9999	-9999	-9999	-9999	-9999	-9999	-9999	-9999	-9999	-9999	-9999	-9999	-9999	-9999	-9999	-9999	-9999	-9999	-9999	-9999	-9999	-9999	-9999	-9999	-9999	-9999	-9999	-9999	-9999	-9999	-9999	-9999
-9999	-9999	-9999	-9999	-9999	-9999	-9999	-9999	-9999	-9999	-9999	-9999	-9999	-9999	-9999	-9999	-9999	-9999	-9999	-9999	-9999	-9999	-9999	-9999	-9999	-9999	-9999	-9999	-9999	-9999	-9999	-9999	-9999	-9999	-9999	-9999	-9999	-9999	-9999	-9999	-9999	-9999	-9999	-9999	-9999	-9999	-9999	-9999	-9999	-9999	-9999	-9999	-9999	-9999	-9999	-9999	-9999	-9999	-9999	-9999	-9999	-9999	-9999	195.9564	195.7899	195.5814	195.3689	195.1503	194.9186	194.6681	194.4199	194.1817	193.9249	193.7254	193.5774	193.4719	193.4328	193.4166	193.4133	193.4325	193.466	193.4851	193.4781	193.4554	193.4392	193.4178	193.3647	193.2892	193.1756	192.9834	192.7315	192.48	192.1988	191.8785	191.5449	191.2317	190.9589	190.7248	190.4881	190.1989	189.9082	189.6798	189.3382	188.8089	188.0705	187.1441	186.1332	185.101	184.1808	183.3286	182.072	180.0077	177.6745	176.1617	175.5762	175.2867	175.1595	175.0307	175.0113	175.124	175.0748	174.6138	174.0388	173.4603	172.8425	172.2143	171.5086	170.439	169.2712	168.479	167.9516	167.1509	166.3075	165.4348	164.5365	163.845	163.3422	163.0138	162.8062	162.6433	162.4798	162.344	162.3059	162.4115	162.4816	162.3738	162.4462	162.7773	163.1707	163.3467	163.178	162.7711	162.1269	161.2648	160.2564	159.2161	158.3842	157.7928	157.4343	157.2893	157.2311	157.1205	156.7111	155.9367	155.0913	154.5121	154.0587	153.5772	152.9667	152.235	151.4154	150.1878	148.5159	146.7748	145.3664	144.341	143.4196	143.459	144.8533	146.7919	148.6936	150.5218	152.4112	154.3495	156.1673	157.7044	158.9005	159.9384	160.9764	161.9925	162.9615	163.8621	164.62	165.2477	165.8506	166.4319	166.9825	167.4977	167.9648	168.3704	168.7172	169.0132	169.2629	169.4766	169.6691	169.8375	169.9697	170.0577	170.1115	170.139	170.117	170.0577	169.9795	169.8498	169.623	169.337	168.9988	168.585	168.0297	167.301	166.5531	165.7745	164.9284	163.9472	162.8188	161.9924	161.4734	161.1001	161.0023	161.3747	161.8179	162.6246	163.579	164.1202	164.6097	165.04	165.3185	165.4022	165.321	165.1757	165.055	164.9495	164.8439	164.7667	164.7093	164.6774	164.6694	164.6747	164.6927	164.7346	164.7871	164.8431	164.9018	164.9022	-9999	-9999	-9999	-9999	-9999	-9999	-9999	-9999	-9999	-9999	-9999	-9999	-9999	-9999	-9999	-9999	-9999	-9999	-9999	-9999	-9999	-9999	-9999	-9999	-9999	-9999	-9999	-9999	-9999	-9999	-9999	-9999	-9999	-9999	-9999	-9999	156.0801	155.8495	155.6129	155.3927	155.1828	154.9978	154.8255	154.6363	154.4721	-9999	-9999	-9999	-9999	-9999	-9999	-9999	-9999	-9999	-9999	-9999	-9999	-9999	-9999	-9999	-9999	-9999	-9999	153.9554	154.1549	154.4605	155.0413	155.7783	156.4501	157.0741	157.9047	158.8117	-9999	-9999	-9999	-9999	-9999	-9999	-9999	-9999	-9999	-9999	-9999	-9999	-9999	-9999	-9999	-9999	-9999	-9999	-9999	-9999	-9999	-9999	-9999	-9999	-9999	-9999	-9999	-9999	-9999	-9999	-9999	-9999	-9999	-9999	-9999	-9999	-9999	-9999	-9999	-9999	-9999	-9999	-9999	-9999	-9999	-9999	-9999	-9999	-9999	-9999	-9999	-9999	-9999	-9999	-9999	-9999	-9999	-9999	-9999	-9999	-9999	-9999
-9999	-9999	-9999	-9999	-9999	-9999	-9999	-9999	-9999	-9999	-9999	-9999	-9999	-9999	-9999	-9999	-9999	-9999	-9999	-9999	-9999	-9999	-9999	-9999	-9999	-9999	-9999	-9999	-9999	-9999	-9999	-9999	-9999	-9999	-9999	-9999	-9999	-9999	-9999	-9999	-9999	-9999	-9999	-9999	-9999	-9999	-9999	-9999	-9999	-9999	-9999	-9999	-9999	-9999	-9999	-9999	-9999	-9999	-9999	-9999	-9999	-9999	-9999	-9999	-9999	-9999	195.4482	195.2944	195.1281	194.907	194.634	194.3686	194.1283	193.9167	193.7673	193.7142	193.7448	193.8126	193.8742	193.9172	193.9449	193.9608	193.9658	193.9584	193.932	193.8891	193.8378	193.7649	193.6447	193.4484	193.1911	192.9039	192.5537	192.1628	191.7627	191.3798	191.0474	190.7607	190.4755	190.1589	189.854	189.6039	189.2668	188.6965	187.8538	186.8126	185.6931	184.566	183.5983	182.4596	180.6563	178.4556	176.6181	175.7146	175.4661	175.3164	175.2598	175.345	175.5886	175.901	176.131	176.1476	175.8197	175.3562	174.9592	174.4205	173.3498	171.6618	169.9844	168.9378	168.4244	167.933	167.2324	166.3807	165.4615	164.5436	163.7852	163.2173	162.8077	162.5347	162.3623	162.1992	161.8857	161.4948	161.0807	160.5447	160.0449	159.9592	160.303	160.6902	160.8212	160.7423	160.4438	159.8595	159.0401	158.1916	157.5102	156.9478	156.5077	156.2401	155.976	155.4076	154.441	153.332	152.4744	152.045	151.8403	151.596	151.1397	150.3977	149.3618	148.1063	146.7369	145.5046	144.5166	143.7079	143.8705	145.1127	146.8941	148.7947	150.6365	152.4352	154.3585	156.3983	158.1892	159.3952	160.3946	161.4505	162.5107	163.5099	164.4341	165.1828	165.8029	166.4021	166.9823	167.5323	168.0639	168.5677	169.0125	169.3858	169.7011	169.9684	170.1909	170.3816	170.5612	170.7208	170.8391	170.9076	170.9392	170.9389	170.8817	170.8093	170.7259	170.5683	170.3101	170.0115	169.6367	169.15	168.5276	167.7171	166.7724	165.8381	164.9453	164.0031	163.1047	162.6803	162.731	162.7906	162.823	163.3826	164.0333	164.7099	165.3584	165.739	165.9423	166.0403	166.1164	166.1634	166.1854	166.2786	166.1786	165.9443	165.7636	165.6121	165.4761	165.3864	165.3378	165.3063	165.296	165.3	165.3155	165.3098	165.3205	-9999	-9999	-9999	-9999	-9999	-9999	-9999	-9999	-9999	-9999	-9999	-9999	-9999	-9999	-9999	-9999	-9999	-9999	-9999	-9999	-9999	-9999	-9999	-9999	-9999	-9999	-9999	-9999	-9999	-9999	-9999	-9999	-9999	-9999	-9999	-9999	-9999	-9999	-9999	-9999	-9999	-9999	-9999	-9999	-9999	-9999	-9999	-9999	-9999	-9999	-9999	-9999	-9999	-9999	-9999	-9999	-9999	-9999	-9999	-9999	-9999	-9999	-9999	-9999	-9999	-9999	-9999	-9999	-9999	-9999	-9999	-9999	-9999	-9999	-9999	-9999	-9999	-9999	-9999	-9999	-9999	-9999	-9999	-9999	-9999	-9999	-9999	-9999	-9999	-9999	-9999	-9999	-9999	-9999	-9999	-9999	-9999	-9999	-9999	-9999	-9999	-9999	-9999	-9999	-9999	-9999	-9999	-9999	-9999	-9999	-9999	-9999	-9999	-9999	-9999	-9999	-9999	-9999	-9999	-9999	-9999	-9999	-9999	-9999	-9999	-9999	-9999	-9999	-9999	-9999	-9999	-9999	-9999	-9999	-9999
-9999	-9999	-9999	-9999	-9999	-9999	-9999	-9999	-9999	-9999	-9999	-9999	-9999	-9999	-9999	-9999	-9999	-9999	-9999	-9999	-9999	-9999	-9999	-9999	-9999	-9999	-9999	-9999	-9999	-9999	-9999	-9999	-9999	-9999	-9999	-9999	-9999	-9999	-9999	-9999	-9999	-9999	-9999	-9999	-9999	-9999	-9999	-9999	-9999	-9999	-9999	-9999	-9999	-9999	-9999	-9999	-9999	-9999	-9999	-9999	-9999	-9999	-9999	-9999	-9999	-9999	-9999	-9999	-9999	194.9578	194.7317	194.4387	194.2164	194.0903	194.0632	194.1119	194.1758	194.2488	194.3359	194.4083	194.4466	194.4691	194.4821	194.4881	194.474	194.4315	194.3622	194.2527	194.106	193.9126	193.6535	193.3211	192.9101	192.4484	191.9793	191.5338	191.1316	190.7903	190.509	190.178	189.7757	189.4583	189.1577	188.5431	187.516	186.262	184.942	183.7741	182.6205	181.0262	179.069	177.5712	176.5332	175.9417	175.7341	175.7326	175.9127	176.1585	176.391	176.6159	176.8238	176.9202	176.9177	176.9036	176.9233	176.8384	176.2554	174.5796	172.2751	170.4716	169.6088	169.0402	168.4586	167.6874	166.7029	165.7188	164.8513	164.1531	163.6309	163.2436	162.9235	162.6119	162.167	161.4479	160.5536	159.7173	158.9104	158.1877	158.0052	158.4375	158.8485	159.0732	159.019	158.6456	158.0497	157.4164	156.8318	156.2766	155.7975	155.4205	154.955	154.1514	153.1269	152.1507	151.3683	150.837	150.5624	150.2538	149.6277	148.7192	147.7282	146.6346	145.6088	144.7024	144.0467	144.2735	145.3224	146.9628	148.9252	150.8654	152.6408	154.4426	156.4741	158.3354	159.5731	160.652	161.7484	162.8603	163.9305	164.8632	165.6158	166.2907	166.9399	167.5489	168.122	168.6565	169.1571	169.644	170.1029	170.4778	170.7664	171.0011	171.1878	171.3388	171.4907	171.6216	171.7165	171.7641	171.7582	171.7148	171.6516	171.5696	171.4385	171.2469	171.0193	170.7314	170.3803	169.885	169.189	168.3517	167.2331	166.0073	164.9181	164.0382	163.4417	163.3196	163.5629	163.8525	164.0907	164.4768	165.0339	165.7224	166.2514	166.4675	166.7584	166.8215	166.7848	166.8934	167.0149	167.0818	167.0253	166.8762	166.6945	166.5082	166.3356	166.2144	166.1273	166.0583	166.024	166.0012	165.9934	165.9568	-9999	-9999	-9999	-9999	-9999	-9999	-9999	-9999	-9999	-9999	-9999	-9999	-9999	-9999	-9999	-9999	-9999	-9999	-9999	-9999	-9999	-9999	-9999	-9999	-9999	-9999	-9999	-9999	-9999	-9999	-9999	-9999	-9999	-9999	-9999	-9999	-9999	-9999	-9999	-9999	-9999	-9999	-9999	-9999	-9999	-9999	-9999	-9999	-9999	-9999	-9999	-9999	-9999	-9999	-9999	-9999	-9999	-9999	-9999	-9999	-9999	-9999	-9999	-9999	-9999	-9999	-9999	-9999	-9999	-9999	-9999	-9999	-9999	-9999	-9999	-9999	-9999	-9999	-9999	-9999	-9999	-9999	-9999	-9999	-9999	-9999	-9999	-9999	-9999	-9999	-9999	-9999	-9999	-9999	-9999	-9999	-9999	-9999	-9999	-9999	-9999	-9999	-9999	-9999	-9999	-9999	-9999	-9999	-9999	-9999	-9999	-9999	-9999	-9999	-9999	-9999	-9999	-9999	-9999	-9999	-9999	-9999	-9999	-9999	-9999	-9999	-9999	-9999	-9999	-9999	-9999	-9999	-9999	-9999	-9999	-9999
-9999	-9999	-9999	-9999	-9999	-9999	-9999	-9999	-9999	-9999	-9999	-9999	-9999	-9999	-9999	-9999	-9999	-9999	-9999	-9999	-9999	-9999	-9999	-9999	-9999	-9999	-9999	-9999	-9999	-9999	-9999	-9999	-9999	-9999	-9999	-9999	-9999	-9999	-9999	-9999	-9999	-9999	-9999	-9999	-9999	-9999	-9999	-9999	-9999	-9999	-9999	-9999	-9999	-9999	-9999	-9999	-9999	-9999	-9999	-9999	-9999	-9999	-9999	-9999	-9999	-9999	-9999	-9999	-9999	-9999	194.7023	194.4612	194.4565	194.5078	194.512	194.5602	194.6496	194.7401	194.8148	194.8684	194.8977	194.9135	194.9259	194.9332	194.9237	194.8941	194.8424	194.7415	194.5606	194.3134	194.0131	193.6409	193.2406	192.7786	192.2347	191.6855	191.2315	190.8805	190.5581	190.2374	189.8988	189.4799	189.1252	188.3667	187.0131	185.4753	184.0359	182.8822	181.7493	180.2637	178.6282	177.5424	176.8899	176.5666	176.4974	176.5496	176.776	177.0905	177.3773	177.6232	177.8443	177.9578	177.956	177.9891	178.0228	177.9017	177.7364	177.4227	176	173.6235	171.8204	170.7719	170.0511	169.2908	168.401	167.4057	166.4191	165.5885	164.9676	164.4526	163.9319	163.455	162.8745	162.0481	161.0513	160.0507	159.1047	158.1696	157.5617	157.5462	157.7866	157.902	157.8069	157.5786	157.2129	156.6841	156.2021	155.684	155.1249	154.6804	154.2677	153.7231	152.9844	152.1264	151.2832	150.5452	149.9118	149.2	148.3777	147.5503	146.6465	145.7522	144.9272	144.4485	144.651	145.4669	147.0392	149.0985	151.1146	152.8467	154.4034	156.0455	157.7666	159.3264	160.6182	161.7813	162.8887	163.984	165.0216	165.9053	166.6775	167.3772	168.0231	168.6273	169.1986	169.7361	170.2443	170.7212	171.15	171.5076	171.7785	171.993	172.1725	172.3298	172.4739	172.5586	172.6236	172.6528	172.5998	172.5152	172.4403	172.3321	172.1573	171.9361	171.6765	171.3292	170.9939	170.5988	169.9435	169.0169	167.7883	166.3801	165.0915	164.2275	163.8768	163.9074	164.1694	164.5631	164.9664	165.2895	165.7676	166.3067	166.6689	166.8822	167.0586	167.1783	167.285	167.4385	167.6002	167.682	167.6561	167.5372	167.3574	167.1552	166.9652	166.7922	166.7677	166.8407	166.755	-9999	-9999	-9999	-9999	-9999	-9999	-9999	-9999	-9999	-9999	-9999	-9999	-9999	-9999	-9999	-9999	-9999	-9999	-9999	-9999	-9999	-9999	-9999	-9999	-9999	-9999	-9999	-9999	-9999	-9999	-9999	-9999	-9999	-9999	-9999	-9999	-9999	-9999	-9999	-9999	-9999	-9999	-9999	-9999	-9999	-9999	-9999	-9999	-9999	-9999	-9999	-9999	-9999	-9999	-9999	-9999	-9999	-9999	-9999	-9999	-9999	-9999	-9999	-9999	-9999	-9999	-9999	-9999	-9999	-9999	-9999	-9999	-9999	-9999	-9999	-9999	-9999	-9999	-9999	-9999	-9999	-9999	-9999	-9999	-9999	-9999	-9999	-9999	-9999	-9999	-9999	-9999	-9999	-9999	-9999	-9999	-9999	-9999	-9999	-9999	-9999	-9999	-9999	-9999	-9999	-9999	-9999	-9999	-9999	-9999	-9999	-9999	-9999	-9999	-9999	-9999	-9999	-9999	-9999	-9999	-9999	-9999	-9999	-9999	-9999	-9999	-9999	-9999	-9999	-9999	-9999	-9999	-9999	-9999	-9999	-9999	-9999	-9999	-9999
-9999	-9999	-9999	-9999	-9999	-9999	-9999	-9999	-9999	-9999	-9999	-9999	-9999	-9999	-9999	-9999	-9999	-9999	-9999	-9999	-9999	-9999	-9999	-9999	-9999	-9999	-9999	-9999	-9999	-9999	-9999	-9999	-9999	-9999	-9999	-9999	-9999	-9999	-9999	-9999	-9999	-9999	-9999	-9999	-9999	-9999	-9999	-9999	-9999	-9999	-9999	-9999	-9999	-9999	-9999	-9999	-9999	-9999	-9999	-9999	-9999	-9999	-9999	-9999	-9999	-9999	-9999	-9999	-9999	-9999	194.7549	194.7408	194.8183	194.8944	194.9122	194.9487	195.0254	195.0956	195.1495	195.1863	195.2053	195.2228	195.2391	195.2433	195.239	195.2219	195.167	195.0759	194.9295	194.6632	194.2849	193.9011	193.4677	192.9523	192.365	191.7733	191.2786	190.8759	190.4937	190.0863	189.6819	189.2932	188.7382	187.6982	186.1299	184.4144	183.0342	182.1496	181.3945	180.3048	178.9823	178.0791	177.7159	177.6712	177.7614	177.9299	178.1358	178.3904	178.6268	178.8154	178.9935	179.1143	179.1472	179.1908	179.2106	179.0305	178.7278	178.2025	177.6287	176.6862	174.8474	173.1228	171.9133	171.0111	170.1375	169.2005	168.2784	167.4748	166.7468	166.0318	165.3803	164.7778	164.0574	163.1932	162.2319	161.1106	159.8982	158.7052	157.8008	157.3804	157.2652	157.1241	156.8592	156.5873	156.2891	155.7933	155.3564	154.8829	154.3815	154.0676	153.8234	153.5164	153.072	152.4179	151.4965	150.3893	149.308	148.3771	147.5686	146.7785	145.9482	145.2063	144.8476	144.9907	145.6735	147.1881	149.2842	151.3701	153.0606	154.4316	155.7822	157.2558	158.7741	160.2162	161.5379	162.7182	163.8626	164.9789	165.9915	166.8963	167.7148	168.4297	169.0626	169.6722	170.2734	170.8264	171.3001	171.7291	172.1392	172.4944	172.7947	173.0331	173.2274	173.3955	173.5158	173.556	173.5782	173.5706	173.4717	173.3318	173.204	173.0479	172.8322	172.5525	172.1748	171.7724	171.4377	171.113	170.5968	169.7462	168.6291	167.3319	166.0577	165.1474	164.8071	164.8421	165.1688	165.7031	166.1751	166.4314	166.6363	166.8449	167.0057	167.121	167.194	-9999	-9999	-9999	-9999	167.8984	167.8734	-9999	-9999	-9999	-9999	-9999	-9999	-9999	-9999	-9999	-9999	-9999	-9999	-9999	-9999	-9999	-9999	-9999	-9999	-9999	-9999	-9999	-9999	-9999	-9999	-9999	-9999	-9999	-9999	-9999	-9999	-9999	-9999	-9999	-9999	-9999	-9999	-9999	-9999	-9999	-9999	-9999	-9999	-9999	-9999	-9999	-9999	-9999	-9999	-9999	-9999	-9999	-9999	-9999	-9999	-9999	-9999	-9999	-9999	-9999	-9999	-9999	-9999	-9999	-9999	-9999	-9999	-9999	-9999	-9999	-9999	-9999	-9999	-9999	-9999	-9999	-9999	-9999	-9999	-9999	-9999	-9999	-9999	-9999	-9999	-9999	-9999	-9999	-9999	-9999	-9999	-9999	-9999	-9999	-9999	-9999	-9999	-9999	-9999	-9999	-9999	-9999	-9999	-9999	-9999	-9999	-9999	-9999	-9999	-9999	-9999	-9999	-9999	-9999	-9999	-9999	-9999	-9999	-9999	-9999	-9999	-9999	-9999	-9999	-9999	-9999	-9999	-9999	-9999	-9999	-9999	-9999	-9999	-9999	-9999	-9999	-9999	-9999	-9999	-9999	-9999	-9999	-9999	-9999	-9999	-9999	-9999	-9999
-9999	-9999	-9999	-9999	-9999	-9999	-9999	-9999	-9999	-9999	-9999	-9999	-9999	-9999	-9999	-9999	-9999	-9999	-9999	-9999	-9999	-9999	-9999	-9999	-9999	-9999	-9999	-9999	-9999	-9999	-9999	-9999	-9999	-9999	-9999	-9999	-9999	-9999	-9999	-9999	-9999	-9999	-9999	-9999	-9999	-9999	-9999	-9999	-9999	-9999	-9999	-9999	-9999	-9999	-9999	-9999	-9999	-9999	-9999	-9999	-9999	-9999	-9999	-9999	-9999	-9999	-9999	-9999	-9999	-9999	-9999	194.8813	194.9713	195.0666	195.1122	195.1451	195.1994	195.2625	195.3204	195.3658	195.3999	195.4309	195.4575	195.4637	195.4468	195.4213	195.3833	195.2783	195.1257	194.8847	194.4989	194.0339	193.5232	192.9517	192.3485	191.7828	191.2608	190.7798	190.3179	189.8582	189.4328	189.0008	188.1001	186.7253	185.0458	183.3446	182.292	181.6291	181.133	180.516	179.6198	179.0922	178.9989	179.0885	179.2311	179.4426	179.6615	179.8792	180.0462	180.1616	180.2911	180.385	180.5153	180.5691	180.4282	180.1783	179.8107	179.2491	178.5207	177.6703	176.6118	175.2661	173.8976	172.7281	171.7526	170.9217	170.1663	169.4826	168.7619	167.9428	167.135	166.2305	165.2986	164.4376	163.5669	162.5063	161.1362	159.6903	158.5111	157.7445	157.3175	156.9607	156.5841	156.1191	155.5199	154.9486	154.3575	153.8094	153.4436	153.2483	153.0918	152.8931	152.6131	152.1203	151.2709	150.1445	148.9496	147.8639	146.9213	146.1086	145.5118	145.2454	145.3189	145.9385	147.4162	149.5238	151.6388	153.3093	154.5948	155.7771	156.952	158.2563	159.7154	161.1674	162.4479	163.6207	164.7899	165.9403	167.0094	167.9755	168.7869	169.4799	170.1277	170.7444	171.3025	171.8309	172.3184	172.7587	173.1552	173.4983	173.8286	174.122	174.3504	174.5175	174.6147	174.6368	174.5965	174.5056	174.3625	174.1689	173.9732	173.7354	173.4406	173.0814	172.5969	172.2574	171.9681	171.5113	170.9196	170.2582	169.3981	168.6393	167.9519	167.0952	166.7477	166.6999	167.1188	167.726	167.7116	167.5012	167.3715	167.3011	-9999	-9999	-9999	-9999	-9999	-9999	-9999	-9999	-9999	-9999	-9999	-9999	-9999	-9999	-9999	-9999	-9999	-9999	-9999	-9999	-9999	-9999	-9999	-9999	-9999	-9999	-9999	-9999	-9999	-9999	-9999	-9999	-9999	-9999	-9999	-9999	-9999	-9999	-9999	-9999	-9999	-9999	-9999	-9999	-9999	-9999	-9999	-9999	-9999	-9999	-9999	-9999	-9999	-9999	-9999	-9999	-9999	-9999	-9999	-9999	-9999	-9999	-9999	-9999	-9999	-9999	-9999	-9999	-9999	-9999	-9999	-9999	-9999	-9999	-9999	-9999	-9999	-9999	-9999	-9999	-9999	-9999	-9999	-9999	-9999	-9999	-9999	-9999	-9999	-9999	-9999	-9999	-9999	-9999	-9999	-9999	-9999	-9999	-9999	-9999	-9999	-9999	-9999	-9999	-9999	-9999	-9999	-9999	-9999	-9999	-9999	-9999	-9999	-9999	-9999	-9999	-9999	-9999	-9999	-9999	-9999	-9999	-9999	-9999	-9999	-9999	-9999	-9999	-9999	-9999	-9999	-9999	-9999	-9999	-9999	-9999	-9999	-9999	-9999	-9999	-9999	-9999	-9999	-9999	-9999	-9999	-9999	-9999	-9999	-9999	-9999	-9999	-9999	-9999	-9999	-9999
-9999	-9999	-9999	-9999	-9999	-9999	-9999	-9999	-9999	-9999	-9999	-9999	-9999	-9999	-9999	-9999	-9999	-9999	-9999	-9999	-9999	-9999	-9999	-9999	-9999	-9999	-9999	-9999	-9999	-9999	-9999	-9999	-9999	-9999	-9999	-9999	-9999	-9999	-9999	-9999	-9999	-9999	-9999	-9999	-9999	-9999	-9999	-9999	-9999	-9999	-9999	-9999	-9999	-9999	-9999	-9999	-9999	-9999	-9999	-9999	-9999	-9999	-9999	-9999	-9999	-9999	-9999	-9999	-9999	-9999	-9999	-9999	-9999	-9999	-9999	195.2499	195.2815	195.3339	195.4005	195.4495	195.4789	195.5079	195.5295	195.5538	195.5532	195.4991	195.4282	195.339	195.1813	194.9292	194.5753	194.0879	193.5255	192.9804	192.4316	191.79	191.1018	190.563	190.124	189.6582	189.1366	188.4417	187.4633	186.0226	184.2838	182.8305	182.0125	181.6038	181.265	180.898	180.6016	180.4547	180.5419	180.7166	180.856	181.0373	181.2375	181.4171	181.5453	181.6315	181.7062	181.7683	181.8401	181.8785	181.7774	181.4666	180.9663	180.2629	179.4112	178.5167	177.5957	176.564	175.4493	174.323	173.2725	172.4076	171.7787	171.2575	170.6379	169.8475	168.9466	167.9301	166.9325	166.0347	165.1291	164.0542	162.7221	161.2744	159.9147	158.7875	158.0033	157.5232	157.1112	156.4717	155.5013	154.3733	153.3891	152.7346	152.4021	152.2662	152.1643	152.0129	151.767	151.3382	150.6035	149.5287	148.3974	147.293	146.3386	145.8049	145.5932	145.592	146.2541	147.8762	149.9725	151.9892	153.6066	154.917	156.0704	157.1027	158.2355	159.5651	160.9919	162.3233	163.4772	164.6149	165.8259	167.056	168.1926	169.151	169.9324	170.601	171.2055	171.7659	172.3048	172.8261	173.3162	173.7767	174.2096	174.5971	174.9487	175.2384	175.4624	175.639	175.7366	175.6852	175.5333	175.3725	175.1964	174.952	174.7046	174.4231	174.016	173.5003	173.02	172.755	172.3582	171.7056	171.1476	170.6588	170.0967	169.6687	169.533	169.4443	169.1458	168.7546	168.6713	168.782	168.5811	168.1657	-9999	-9999	-9999	-9999	-9999	-9999	-9999	-9999	-9999	-9999	-9999	-9999	-9999	-9999	-9999	-9999	-9999	-9999	-9999	-9999	-9999	-9999	-9999	-9999	-9999	-9999	-9999	-9999	-9999	-9999	-9999	-9999	-9999	-9999	-9999	-9999	-9999	-9999	-9999	-9999	-9999	-9999	-9999	-9999	-9999	-9999	-9999	-9999	-9999	-9999	-9999	-9999	-9999	-9999	-9999	-9999	-9999	-9999	-9999	-9999	-9999	-9999	-9999	-9999	-9999	-9999	-9999	-9999	-9999	-9999	-9999	-9999	-9999	-9999	-9999	-9999	-9999	-9999	-9999	-9999	-9999	-9999	-9999	-9999	-9999	-9999	-9999	-9999	-9999	-9999	-9999	-9999	-9999	-9999	-9999	-9999	-9999	-9999	-9999	-9999	-9999	-9999	-9999	-9999	-9999	-9999	-9999	-9999	-9999	-9999	-9999	-9999	-9999	-9999	-9999	-9999	-9999	-9999	-9999	-9999	-9999	-9999	-9999	-9999	-9999	-9999	-9999	-9999	-9999	-9999	-9999	-9999	-9999	-9999	-9999	-9999	-9999	-9999	-9999	-9999	-9999	-9999	-9999	-9999	-9999	-9999	-9999	-9999	-9999	-9999	-9999	-9999	-9999	-9999	-9999	-9999	-9999	-9999
-9999	-9999	-9999	-9999	-9999	-9999	-9999	-9999	-9999	-9999	-9999	-9999	-9999	-9999	-9999	-9999	-9999	-9999	-9999	-9999	-9999	-9999	-9999	-9999	-9999	-9999	-9999	-9999	-9999	-9999	-9999	-9999	-9999	-9999	-9999	-9999	-9999	-9999	-9999	-9999	-9999	-9999	-9999	-9999	-9999	-9999	-9999	-9999	-9999	-9999	-9999	-9999	-9999	-9999	-9999	-9999	-9999	-9999	-9999	-9999	-9999	-9999	-9999	-9999	-9999	-9999	-9999	-9999	-9999	-9999	-9999	-9999	-9999	-9999	-9999	-9999	-9999	-9999	-9999	195.493	195.5108	195.5446	195.5594	195.5465	195.5271	195.4864	195.3801	195.2605	195.1062	194.8685	194.5267	194.0632	193.5371	192.9989	192.4578	191.8909	191.264	190.6306	190.0092	189.4568	188.9104	187.9998	186.7878	185.3534	183.826	182.6048	182.0549	182.006	182.0207	181.9621	181.9872	182.0567	182.1263	182.2344	182.4004	182.5591	182.7046	182.8282	182.9027	182.9349	182.9647	182.9885	183.0131	183.0272	182.9281	182.5785	181.9904	181.236	180.3529	179.3881	178.4237	177.4998	176.5624	175.5921	174.6477	173.8044	173.1399	172.5232	171.8829	171.2496	170.5562	169.8137	168.8959	167.7997	166.695	165.6002	164.4468	163.1604	161.7739	160.4658	159.4222	158.6299	157.9301	157.2068	156.1809	154.4327	152.8554	152.0189	151.675	151.471	151.3288	151.1812	150.9515	150.5197	149.8231	149.0069	148.1142	147.106	146.2356	145.8463	145.7868	146.7334	148.6712	150.7905	152.6163	154.0776	155.3832	156.5968	157.6923	158.7715	159.8941	161.1435	162.4364	163.6425	164.794	165.933	167.1181	168.3187	169.446	170.4185	171.105	171.6562	172.2138	172.7648	173.3022	173.8171	174.3196	174.8066	175.2614	175.6745	176.0338	176.3201	176.5092	176.619	176.6931	176.5853	176.4006	176.2274	175.9698	175.6505	175.3228	174.9699	174.5205	173.9814	173.4606	173.0237	172.4783	171.8452	171.3999	171.0558	170.7469	170.5434	170.5813	170.6913	170.3146	169.7699	169.4571	169.2683	168.9193	-9999	-9999	-9999	-9999	-9999	-9999	-9999	-9999	-9999	-9999	-9999	-9999	-9999	-9999	-9999	-9999	-9999	-9999	-9999	-9999	-9999	-9999	-9999	-9999	-9999	-9999	-9999	-9999	-9999	-9999	-9999	-9999	-9999	-9999	-9999	-9999	-9999	-9999	-9999	-9999	-9999	-9999	-9999	-9999	-9999	-9999	-9999	-9999	-9999	-9999	-9999	-9999	-9999	-9999	-9999	-9999	-9999	-9999	-9999	-9999	-9999	-9999	-9999	-9999	-9999	-9999	-9999	-9999	-9999	-9999	-9999	-9999	-9999	-9999	-9999	-9999	-9999	-9999	-9999	-9999	-9999	-9999	-9999	-9999	-9999	-9999	-9999	-9999	-9999	-9999	-9999	-9999	-9999	-9999	-9999	-9999	-9999	-9999	-9999	-9999	-9999	-9999	-9999	-9999	-9999	-9999	-9999	-9999	-9999	-9999	-9999	-9999	-9999	-9999	-9999	-9999	-9999	-9999	-9999	-9999	-9999	-9999	-9999	-9999	-9999	-9999	-9999	-9999	-9999	-9999	-9999	-9999	-9999	-9999	-9999	-9999	-9999	-9999	-9999	-9999	-9999	-9999	-9999	-9999	-9999	-9999	-9999	-9999	-9999	-9999	-9999	-9999	-9999	-9999	-9999	-9999	-9999	-9999	-9999
-9999	-9999	-9999	-9999	-9999	-9999	-9999	-9999	-9999	-9999	-9999	-9999	-9999	-9999	-9999	-9999	-9999	-9999	-9999	-9999	-9999	-9999	-9999	-9999	-9999	-9999	-9999	-9999	-9999	-9999	-9999	-9999	-9999	-9999	-9999	-9999	-9999	-9999	-9999	-9999	-9999	-9999	-9999	-9999	-9999	-9999	-9999	-9999	-9999	-9999	-9999	-9999	-9999	-9999	-9999	-9999	-9999	-9999	-9999	-9999	-9999	-9999	-9999	-9999	-9999	-9999	-9999	-9999	-9999	-9999	-9999	-9999	-9999	-9999	-9999	-9999	-9999	-9999	-9999	-9999	-9999	195.5667	195.5522	195.5078	195.4519	195.3921	195.2642	195.1012	194.9385	194.7117	194.3667	194.0011	193.6478	193.1771	192.5271	191.8323	191.2119	190.5699	189.9055	189.2956	188.6503	187.7477	186.6997	185.4074	183.9776	182.9836	182.6218	182.704	182.9451	183.1421	183.2054	183.2163	183.2925	183.4181	183.5285	183.6345	183.7134	183.7522	183.7564	183.75	183.7516	183.7241	183.6853	183.6062	183.4325	183.1699	182.7967	182.0739	181.0918	180.1078	179.0738	178.1344	177.3638	176.5787	175.6823	174.9059	174.2387	173.5667	172.8829	172.2507	171.6526	171.1347	170.4997	169.5042	168.234	167.0446	165.9306	164.8315	163.6362	162.2867	161.031	159.9146	158.9386	158.0084	156.8053	155.0848	153.4257	152.3806	151.8337	151.3916	151.0581	150.7581	150.3791	149.8391	149.1595	148.4984	147.7748	146.9737	146.6265	147.2609	148.3493	149.8802	151.6788	153.3215	154.7315	156.0259	157.2536	158.4278	159.5685	160.6765	161.7907	162.8767	163.958	165.0858	166.2231	167.3625	168.4897	169.6031	170.616	171.3894	172.0239	172.6116	173.1716	173.7144	174.2634	174.7981	175.3156	175.8137	176.2683	176.6497	176.9181	177.1015	177.218	177.2501	177.2202	177.1509	177.0477	176.8767	176.604	176.2422	175.8314	175.4113	174.9764	174.4638	173.8247	173.1863	172.6191	172.148	171.8183	171.5886	171.4467	171.3316	171.1974	171.0285	170.7188	170.2338	169.7718	-9999	-9999	-9999	-9999	-9999	-9999	-9999	-9999	-9999	-9999	-9999	-9999	-9999	-9999	-9999	-9999	-9999	-9999	-9999	-9999	-9999	-9999	-9999	-9999	-9999	-9999	-9999	-9999	-9999	-9999	-9999	-9999	-9999	-9999	-9999	-9999	-9999	-9999	-9999	-9999	-9999	-9999	-9999	-9999	-9999	-9999	-9999	-9999	-9999	-9999	-9999	-9999	-9999	-9999	-9999	-9999	-9999	-9999	-9999	-9999	-9999	-9999	-9999	-9999	-9999	-9999	-9999	-9999	-9999	-9999	-9999	-9999	-9999	-9999	-9999	-9999	-9999	-9999	-9999	-9999	-9999	-9999	-9999	-9999	-9999	-9999	-9999	-9999	-9999	-9999	-9999	-9999	-9999	-9999	-9999	-9999	-9999	-9999	-9999	-9999	-9999	-9999	-9999	-9999	-9999	-9999	-9999	-9999	-9999	-9999	-9999	-9999	-9999	-9999	-9999	-9999	-9999	-9999	-9999	-9999	-9999	-9999	-9999	-9999	-9999	-9999	-9999	-9999	-9999	-9999	-9999	-9999	-9999	-9999	-9999	-9999	-9999	-9999	-9999	-9999	-9999	-9999	-9999	-9999	-9999	-9999	-9999	-9999	-9999	-9999	-9999	-9999	-9999	-9999	-9999	-9999	-9999	-9999	-9999	-9999	-9999
-9999	-9999	-9999	-9999	-9999	-9999	-9999	-9999	-9999	-9999	-9999	-9999	-9999	-9999	-9999	-9999	-9999	-9999	-9999	-9999	-9999	-9999	-9999	-9999	-9999	-9999	-9999	-9999	-9999	-9999	-9999	-9999	-9999	-9999	-9999	-9999	-9999	-9999	-9999	-9999	-9999	-9999	-9999	-9999	-9999	-9999	-9999	-9999	-9999	-9999	-9999	-9999	-9999	-9999	-9999	-9999	-9999	-9999	-9999	-9999	-9999	-9999	-9999	-9999	-9999	-9999	-9999	-9999	-9999	-9999	-9999	-9999	-9999	-9999	-9999	-9999	-9999	-9999	-9999	-9999	-9999	195.5277	195.4907	195.4614	195.3909	195.2564	195.0773	194.9413	194.737	194.4216	194.121	193.7939	193.4548	193.0832	192.5561	191.8043	191.0036	190.3479	189.7835	189.1803	188.5325	187.8093	187.0993	186.1976	185.1261	184.4067	184.1904	184.2675	184.4276	184.5395	184.5054	184.4229	184.4383	184.5524	184.6599	184.7083	184.6805	184.6291	184.5845	184.5236	184.4296	184.3315	184.2194	184.0418	183.7749	183.4482	183.0979	182.5455	181.7295	180.7455	179.6443	178.6828	177.9299	177.245	176.5025	175.7311	175.0444	174.4004	173.7008	172.9839	172.3824	171.8562	171.3326	170.6481	169.6463	168.4332	167.2027	166.0484	164.9312	163.7718	162.4937	161.1212	159.8857	158.8675	157.7515	156.2206	154.6323	153.4018	152.5938	152.0582	151.5717	150.9383	150.1962	149.4789	148.7969	148.1536	147.3269	147.0667	147.9954	149.4244	151.0079	152.5298	153.9529	155.3196	156.6381	157.9406	159.2395	160.4884	161.633	162.6859	163.6699	164.646	165.6325	166.6306	167.681	168.7201	169.7722	170.7491	171.5379	172.252	172.9158	173.5225	174.0844	174.6346	175.2022	175.7785	176.2985	176.7194	177.0502	177.2945	177.4697	177.5987	177.6743	177.6719	177.6047	177.5571	177.4588	177.252	176.9977	176.6599	176.228	175.7412	175.2374	174.6979	174.0907	173.4805	172.9462	172.5401	172.2861	172.1433	172.0014	171.7861	171.529	171.2756	170.9596	170.5583	-9999	-9999	-9999	-9999	-9999	-9999	-9999	-9999	-9999	-9999	-9999	-9999	-9999	-9999	-9999	-9999	-9999	-9999	-9999	-9999	-9999	-9999	-9999	-9999	-9999	-9999	-9999	-9999	-9999	-9999	-9999	-9999	-9999	-9999	-9999	-9999	-9999	-9999	-9999	-9999	-9999	-9999	-9999	-9999	-9999	-9999	-9999	-9999	-9999	-9999	-9999	-9999	-9999	-9999	-9999	-9999	-9999	-9999	-9999	-9999	-9999	-9999	-9999	-9999	-9999	-9999	-9999	-9999	-9999	-9999	-9999	-9999	-9999	-9999	-9999	-9999	-9999	-9999	-9999	-9999	-9999	-9999	-9999	-9999	-9999	-9999	-9999	-9999	-9999	-9999	-9999	-9999	-9999	-9999	-9999	-9999	-9999	-9999	-9999	-9999	-9999	-9999	-9999	-9999	-9999	-9999	-9999	-9999	-9999	-9999	-9999	-9999	-9999	-9999	-9999	-9999	-9999	-9999	-9999	-9999	-9999	-9999	-9999	-9999	-9999	-9999	-9999	-9999	-9999	-9999	-9999	-9999	-9999	-9999	-9999	-9999	-9999	-9999	-9999	-9999	-9999	-9999	-9999	-9999	-9999	-9999	-9999	-9999	-9999	-9999	-9999	-9999	-9999	-9999	-9999	-9999	-9999	-9999	-9999	-9999	-9999	-9999
-9999	-9999	-9999	-9999	-9999	-9999	-9999	-9999	-9999	-9999	-9999	-9999	-9999	-9999	-9999	-9999	-9999	-9999	-9999	-9999	-9999	-9999	-9999	-9999	-9999	-9999	-9999	-9999	-9999	-9999	-9999	-9999	-9999	-9999	-9999	-9999	-9999	-9999	-9999	-9999	-9999	-9999	-9999	-9999	-9999	-9999	-9999	-9999	-9999	-9999	-9999	-9999	-9999	-9999	-9999	-9999	-9999	-9999	-9999	-9999	-9999	-9999	-9999	-9999	-9999	-9999	-9999	-9999	-9999	-9999	-9999	-9999	-9999	-9999	-9999	-9999	-9999	-9999	-9999	-9999	-9999	-9999	195.4798	195.4107	195.2765	195.0901	194.9415	194.743	194.4311	194.0671	193.7615	193.5884	193.3728	192.9934	192.5257	192.0161	191.3135	190.5207	189.8535	189.3254	188.7637	188.1385	187.5429	187.1023	186.7591	186.395	186.2652	186.2507	186.1591	186.044	185.9816	185.8086	185.6691	185.6745	185.7113	185.6702	185.5228	185.3543	185.2274	185.0939	184.8987	184.7444	184.581	184.3291	184.0071	183.6465	183.2832	182.867	182.2259	181.2825	180.2409	179.2654	178.4607	177.784	177.0994	176.3735	175.6659	175.0185	174.3163	173.5293	172.9411	172.397	171.8194	171.2533	170.5526	169.4693	168.188	166.9687	165.89	164.8309	163.565	162.0871	160.7306	159.6657	158.5974	157.2402	155.6544	154.311	153.4734	152.8465	152.1197	151.1654	150.1297	149.2357	148.5149	147.8123	147.721	148.6113	150.1168	151.7376	153.1804	154.5397	155.8986	157.2384	158.6116	160.0288	161.42	162.7181	163.8622	164.792	165.6384	166.5051	167.4059	168.2926	169.1313	170.0226	170.9186	171.7318	172.4731	173.1657	173.7988	174.3756	174.9336	175.5061	176.0804	176.625	177.0504	177.3487	177.5983	177.7976	177.9175	177.977	178.0009	177.9756	177.9139	177.8846	177.7915	177.5543	177.2613	176.9215	176.4731	175.9467	175.4098	174.8648	174.339	173.7464	173.1617	172.7361	-9999	-9999	-9999	171.9219	171.7559	171.4495	171.105	-9999	-9999	-9999	-9999	-9999	-9999	-9999	-9999	-9999	-9999	-9999	-9999	-9999	-9999	-9999	-9999	-9999	-9999	-9999	-9999	-9999	-9999	-9999	-9999	-9999	-9999	-9999	-9999	-9999	-9999	-9999	-9999	-9999	-9999	-9999	-9999	-9999	-9999	-9999	-9999	-9999	-9999	-9999	-9999	-9999	-9999	-9999	-9999	-9999	-9999	-9999	-9999	-9999	-9999	-9999	-9999	-9999	-9999	-9999	-9999	-9999	-9999	-9999	-9999	-9999	-9999	-9999	-9999	-9999	-9999	-9999	-9999	-9999	-9999	-9999	-9999	-9999	-9999	-9999	-9999	-9999	-9999	-9999	-9999	-9999	-9999	-9999	-9999	-9999	-9999	-9999	-9999	-9999	-9999	-9999	-9999	-9999	-9999	-9999	-9999	-9999	-9999	-9999	-9999	-9999	-9999	-9999	-9999	-9999	-9999	-9999	-9999	-9999	-9999	-9999	-9999	-9999	-9999	-9999	-9999	-9999	-9999	-9999	-9999	-9999	-9999	-9999	-9999	-9999	-9999	-9999	-9999	-9999	-9999	-9999	-9999	-9999	-9999	-9999	-9999	-9999	-9999	-9999	-9999	-9999	-9999	-9999	-9999	-9999	-9999	-9999	-9999	-9999	-9999	-9999	-9999	-9999	-9999	-9999	-9999	-9999	-9999	-9999
-9999	-9999	-9999	-9999	-9999	-9999	-9999	-9999	-9999	-9999	-9999	-9999	-9999	-9999	-9999	-9999	-9999	-9999	-9999	-9999	-9999	-9999	-9999	-9999	-9999	-9999	-9999	-9999	-9999	-9999	-9999	-9999	-9999	-9999	-9999	-9999	-9999	-9999	-9999	-9999	-9999	-9999	-9999	-9999	-9999	-9999	-9999	-9999	-9999	-9999	-9999	-9999	-9999	-9999	-9999	-9999	-9999	-9999	-9999	-9999	-9999	-9999	-9999	-9999	-9999	-9999	-9999	-9999	-9999	-9999	-9999	-9999	-9999	-9999	-9999	-9999	-9999	-9999	-9999	-9999	-9999	-9999	195.4066	195.3175	195.1812	195.0018	194.7981	194.511	194.1778	193.8661	193.5836	193.3718	193.2953	193.1526	192.8171	192.412	191.7766	191.0476	190.3271	189.6739	189.2169	188.8732	188.6738	188.5789	188.4717	188.3381	188.2235	188.0842	187.8481	187.5526	187.3011	187.055	186.8545	186.7338	186.6382	186.4912	186.2407	185.9673	185.7194	185.4754	185.2496	185.0415	184.7972	184.5027	184.1802	183.8132	183.4173	182.9975	182.4067	181.5384	180.5976	179.7129	178.8955	178.1494	177.4812	176.824	176.1237	175.4591	174.8095	174.0288	173.1946	172.6425	172.2065	171.6295	170.9849	170.0958	168.8892	167.5978	166.4181	165.2443	164.0077	162.6734	161.3526	160.1577	159.0101	157.7465	156.2911	154.9249	153.9148	153.1062	152.2574	151.1128	149.9411	149.0495	148.3466	148.243	149.1821	150.8131	152.4132	153.8277	155.1707	156.5132	157.8993	159.393	160.955	162.4435	163.7916	164.9779	166.0098	166.9475	167.8116	168.5979	169.2777	169.8964	170.5894	171.3292	172.071	172.8015	173.495	174.1134	174.6631	175.2098	175.785	176.3424	176.8322	177.2235	177.556	177.8367	178.0278	178.1688	178.2305	178.2363	178.2234	178.1764	178.0994	178.0653	-9999	-9999	-9999	-9999	-9999	-9999	-9999	-9999	-9999	-9999	-9999	-9999	-9999	-9999	-9999	-9999	-9999	-9999	-9999	-9999	-9999	-9999	-9999	-9999	-9999	-9999	-9999	-9999	-9999	-9999	-9999	-9999	-9999	-9999	-9999	-9999	-9999	-9999	-9999	-9999	-9999	-9999	-9999	-9999	-9999	-9999	-9999	-9999	-9999	-9999	-9999	-9999	-9999	-9999	-9999	-9999	-9999	-9999	-9999	-9999	-9999	-9999	-9999	-9999	-9999	-9999	-9999	-9999	-9999	-9999	-9999	-9999	-9999	-9999	-9999	-9999	-9999	-9999	-9999	-9999	-9999	-9999	-9999	-9999	-9999	-9999	-9999	-9999	-9999	-9999	-9999	-9999	-9999	-9999	-9999	-9999	-9999	-9999	-9999	-9999	-9999	-9999	-9999	-9999	-9999	-9999	-9999	-9999	-9999	-9999	-9999	-9999	-9999	-9999	-9999	-9999	-9999	-9999	-9999	-9999	-9999	-9999	-9999	-9999	-9999	-9999	-9999	-9999	-9999	-9999	-9999	-9999	-9999	-9999	-9999	-9999	-9999	-9999	-9999	-9999	-9999	-9999	-9999	-9999	-9999	-9999	-9999	-9999	-9999	-9999	-9999	-9999	-9999	-9999	-9999	-9999	-9999	-9999	-9999	-9999	-9999	-9999	-9999	-9999	-9999	-9999	-9999	-9999	-9999	-9999	-9999	-9999	-9999	-9999	-9999	-9999	-9999	-9999	-9999	-9999	-9999	-9999
